# .PCD v0.7 - Point Cloud Data file format
VERSION 0.7
FIELDS x y z noise intensity gray
SIZE 4 4 4 4 2 1
TYPE F F F F U U
COUNT 1 1 1 1 1 1
WIDTH 964
HEIGHT 1
VIEWPOINT 0 0 0 1 0 0 0
POINTS 964
DATA ascii
0.31639123 -0.23717289 0.63793409 0.0058493139 111 23
0.32028505 -0.23768421 0.64038199 0.0059541152 97 20
0.32272434 -0.23711663 0.63998669 0.006194524 94 20
0.32753921 -0.23828852 0.64435118 0.007332298 93 19
0.32901499 -0.23703204 0.64220858 0.0062532118 99 21
0.33579892 -0.23958702 0.65045786 0.0052699577 118 25
nan nan nan 0 84 18
-0.34891173 -0.21536286 0.6085493 0.0059160949 108 23
-0.36025441 -0.22426012 0.63393253 0.0088364817 76 16
-0.36171272 -0.22710441 0.64156258 0.0068006334 98 21
-0.34989214 -0.22158846 0.62511992 0.0058576842 126 27
-0.35172054 -0.22469559 0.63270181 0.005713752 104 22
-0.35907426 -0.23141858 0.65021515 0.0081840651 75 16
nan nan nan 0 60 12
-0.37005407 -0.24278143 0.6788848 0.014994822 40 8
-0.36767212 -0.24340615 0.67896175 0.01358003 50 10
nan nan nan 0 71 15
nan nan nan 0 68 14
nan nan nan 0 73 15
nan nan nan 0 72 15
nan nan nan 0 93 19
nan nan nan 0 70 15
-0.31553626 -0.22304966 0.6124059 0.0080225412 82 17
-0.31725574 -0.22645788 0.62054902 0.0043536196 143 30
nan nan nan 0 100 21
-0.33253747 -0.24210025 0.66100705 0.018363735 38 8
-0.33112961 -0.24350359 0.66372925 0.0059857154 99 21
-0.31569523 -0.23451586 0.63822997 0.0029692994 237 50
-0.3109372 -0.23335579 0.63414621 0.0035285663 191 40
-0.31398237 -0.23808874 0.64613533 0.004775756 128 27
-0.30269197 -0.23193644 0.62866175 0.0028349822 262 56
-0.30678469 -0.2375659 0.64320093 0.0035804077 185 39
-0.30473539 -0.23850887 0.64511067 0.0035049715 186 39
-0.30226785 -0.23914135 0.6462574 0.0037064445 181 38
-0.29777139 -0.23816496 0.64313924 0.0065819332 92 19
-0.29800794 -0.24099444 0.65037924 0.015343555 39 8
-0.29029265 -0.23738472 0.64032751 0.0073599545 87 18
-0.28568342 -0.23626196 0.6370753 0.0021375874 367 78
-0.28286576 -0.23661213 0.63788116 0.0017211661 563 120
-0.28274503 -0.23925245 0.64494634 0.002537726 296 63
-0.27579784 -0.23611054 0.63651007 0.0064253435 100 21
-0.27705085 -0.23999763 0.64710915 0.0061126379 98 21
nan nan nan 0 100 21
-0.27987397 -0.24833655 0.67010629 0.0082230745 73 15
-0.27195236 -0.24427657 0.65952927 0.0068255821 85 18
-0.26253527 -0.23875538 0.64507151 0.0018523203 461 98
-0.26331154 -0.24248195 0.65567344 0.0024607261 320 68
-0.26981175 -0.2516422 0.68107325 0.0031344136 223 47
nan nan nan 0 160 34
-0.25822893 -0.2471543 0.67037588 0.0027956543 254 54
-0.24874167 -0.24123658 0.65512627 0.0017001677 564 120
-0.24062242 -0.23650409 0.64311546 0.0011458985 1090 233
-0.23733717 -0.2364586 0.64388341 0.0010605308 1135 243
-0.23662436 -0.23901017 0.65177894 0.0026562882 297 63
nan nan nan 0 180 38
-0.23161779 -0.24061121 0.65817088 0.002157897 361 77
-0.22679844 -0.23900567 0.65483397 0.0020815649 434 93
-0.22127017 -0.23659508 0.64929909 0.0020245868 449 96
nan nan nan 0 217 46
nan nan nan 0 126 27
nan nan nan 0 195 41
-0.17230552 -0.19570464 0.54075468 0.0019369054 498 106
-0.16703321 -0.19271457 0.53341281 0.0014137471 794 170
-0.16455938 -0.19290905 0.53487223 0.0013628609 794 170
-0.16215524 -0.19319294 0.53657919 0.0014107627 763 163
-0.16017371 -0.19399807 0.53973401 0.001366585 748 160
-0.15994658 -0.19699112 0.54898661 0.0014414154 709 152
-0.15721947 -0.19695503 0.54980201 0.0014100262 728 156
-0.15433855 -0.19672169 0.55005413 0.0013435365 771 165
-0.15163395 -0.19670872 0.55090874 0.0012947212 820 175
-0.14935863 -0.1972623 0.55333817 0.0013798561 812 174
-0.14696978 -0.19768356 0.55538523 0.0013216137 792 169
-0.14479563 -0.19841483 0.55829185 0.0014027712 781 167
-0.14330822 -0.2001331 0.56396854 0.0015028305 730 156
-0.14063945 -0.20023644 0.56508362 0.0013922387 730 156
-0.13841827 -0.20099387 0.56802893 0.0014761969 711 152
-0.13733771 -0.20347187 0.5758301 0.0014934889 652 139
-0.13543853 -0.2048146 0.58041292 0.0015378748 629 134
-0.13458876 -0.20783463 0.58974487 0.0016408977 566 121
-0.13221303 -0.20857787 0.59260875 0.0016509787 560 120
-0.12842706 -0.20708002 0.58908147 0.0015635137 611 131
-0.12471308 -0.20563322 0.58566785 0.0014811662 662 141
-0.12140613 -0.20480618 0.58399069 0.0014035867 715 153
-0.11838093 -0.20442654 0.58356428 0.0014008427 756 162
-0.11519475 -0.20374385 0.58224851 0.0013231817 792 169
-0.11255892 -0.20402478 0.58366477 0.0014355413 772 165
-0.10978983 -0.20407228 0.58439374 0.0013830579 731 156
-0.10715584 -0.20437999 0.58584863 0.0014097783 718 153
-0.10466397 -0.20498256 0.58813113 0.0014396918 691 148
-0.10245327 -0.20618418 0.59211755 0.0014875394 657 140
-0.099378817 -0.20566633 0.59114814 0.0015327275 626 134
-0.096558124 -0.20565879 0.59162492 0.0015225196 629 134
-0.093859106 -0.20591773 0.59284979 0.0015565879 613 131
-0.091269605 -0.20644043 0.59481734 0.0017466845 569 122
-0.088622175 -0.20686136 0.5964753 0.0016933867 532 114
-0.085889362 -0.20710418 0.59760284 0.0018257159 519 111
-0.082860507 -0.20662537 0.5966301 0.0018945565 501 107
-0.079906426 -0.20630576 0.59609777 0.0018195801 482 103
-0.076839685 -0.20566116 0.59460801 0.0018505283 470 100
-0.074086569 -0.20583887 0.59547812 0.0018392948 474 101
-0.071028784 -0.20515069 0.593826 0.0017958304 489 104
-0.067308426 -0.20241328 0.58622068 0.0017627347 511 109
-0.064279385 -0.20160894 0.58419305 0.0017045921 531 113
-0.061225425 -0.20065071 0.58170182 0.0016745523 549 117
-0.058629274 -0.20117328 0.58348811 0.0018394188 533 114
-0.055989932 -0.20159188 0.58495963 0.0018447498 527 113
-0.054638032 -0.20692983 0.60069835 0.001924227 492 105
-0.052092101 -0.20808235 0.60428065 0.0019932559 475 101
-0.050013263 -0.21134213 0.61397302 0.0018548968 470 100
-0.047224917 -0.21182002 0.61557364 0.0019101459 463 99
-0.044897228 -0.21456191 0.62374288 0.0019225854 439 94
-0.04217824 -0.21568704 0.62720162 0.0019167144 474 101
-0.039373372 -0.21650934 0.62976784 0.001843549 473 101
-0.036712285 -0.21832067 0.63519919 0.0019042314 452 96
-0.033692226 -0.21812917 0.63479108 0.0018485446 470 100
-0.031101864 -0.22095306 0.64314681 0.0026577914 292 62
nan nan nan 0 122 26
nan nan nan 0 56 12
-0.026291071 -0.26378304 0.76821393 0.014264865 45 9
-0.022597523 -0.26284868 0.76559418 0.013389976 45 9
-0.018920757 -0.26179221 0.76260298 0.014121615 41 8
-0.015083431 -0.25750068 0.75017154 0.010726948 53 11
-0.011213363 -0.24985991 0.72796512 0.0064128051 97 20
-0.0076675853 -0.24590626 0.71648479 0.0061303992 115 24
nan nan nan 0 198 42
nan nan nan 0 1212 255
0.0023175559 -0.23381114 0.68127459 0.0020560955 460 98
0.0055244807 -0.23399144 0.68178374 0.0023782831 325 69
0.0086454693 -0.23173587 0.67518264 0.0018345851 472 101
nan nan nan 0 321 68
0.015654378 -0.24194293 0.70481968 0.0035479544 214 45
0.019026084 -0.24267828 0.70689005 0.0015185161 681 146
nan nan nan 0 1816 255
0.025632419 -0.24228205 0.70555043 0.0013026498 834 178
0.028813159 -0.24112751 0.70207471 0.0027230929 280 60
nan nan nan 0 539 115
0.035126153 -0.23913431 0.69600368 0.002328061 334 71
0.038023394 -0.2367783 0.68899256 0.0021637161 407 87
nan nan nan 0 1876 255
0.042864267 -0.22802347 0.66317868 0.00095551542 1358 255
nan nan nan 0 2502 255
0.05145663 -0.23891406 0.69443768 0.0010275282 1212 255
0.055029806 -0.24022634 0.69802016 0.0011885519 946 202
0.058003463 -0.23892105 0.69398075 0.0018154386 520 111
0.059911687 -0.23360099 0.67827106 0.0018145727 494 105
0.063332036 -0.23441735 0.68036771 0.001981402 446 95
0.066569917 -0.23451218 0.68035269 0.0018796707 451 96
0.069141269 -0.23235825 0.67379969 0.0015985046 578 123
0.074045256 -0.2378881 0.68950671 0.0018351233 474 101
0.078195907 -0.2406335 0.69711387 0.0012825261 830 178
0.080767088 -0.23849288 0.69054735 0.0020354947 406 87
nan nan nan 0 244 52
0.087405086 -0.23877805 0.69058651 0.0034049086 201 43
0.090016395 -0.23704171 0.68514585 0.0019137844 449 96
0.092619814 -0.23540615 0.67998332 0.0021940523 398 85
0.094701521 -0.23259923 0.67142612 0.0020127364 449 96
nan nan nan 0 561 120
0.089484803 -0.20593001 0.59359366 0.0014503042 683 146
0.091741264 -0.20467107 0.58951634 0.001348114 772 165
0.094132781 -0.20377916 0.58648258 0.0013210644 800 171
0.097031809 -0.20400567 0.58665049 0.0014227198 761 163
0.10193951 -0.20832443 0.5985561 0.0015362811 637 136
0.10480156 -0.2083413 0.59807134 0.0015868354 593 127
0.10728868 -0.20763171 0.59548295 0.0017008029 577 123
0.10976797 -0.20694397 0.59294099 0.0016719848 588 126
0.11270695 -0.20713575 0.59289974 0.0017978587 539 115
0.11647861 -0.20881078 0.59707814 0.0018461485 502 107
0.12141216 -0.21243855 0.60680324 0.0018359135 478 102
0.12423839 -0.21229555 0.60572541 0.0017315031 516 110
0.1275558 -0.21297921 0.60698271 0.0017263446 529 113
0.12991728 -0.21207191 0.60368484 0.0017251796 550 117
0.13175188 -0.210363 0.59809232 0.0015560031 616 132
0.13511361 -0.21111338 0.59947354 0.001558471 608 130
0.14008094 -0.21428849 0.60770398 0.0018037802 526 112
0.14150786 -0.21202844 0.60049611 0.0016574853 569 122
0.1441194 -0.21159862 0.59846044 0.0015308572 630 135
0.14661254 -0.21101534 0.59597385 0.0015503041 620 132
0.15112633 -0.21330661 0.60157865 0.0016066025 582 124
0.15541194 -0.21519506 0.6060102 0.0018381433 473 101
0.15890342 -0.21593405 0.60717428 0.0017644266 496 106
0.15980908 -0.21319637 0.5985527 0.0016774079 555 119
0.16255972 -0.21297409 0.59698856 0.0016333347 569 122
0.16459437 -0.21183817 0.59285349 0.0016833572 566 121
0.1703054 -0.21539122 0.60181522 0.0017628846 507 108
0.17402776 -0.21635099 0.60349745 0.0018776989 487 104
0.17540307 -0.21440962 0.59708005 0.0017668202 497 106
0.17799303 -0.21399249 0.59490931 0.0017065102 526 112
0.17444946 -0.20633429 0.57263941 0.001554352 612 131
0.1725888 -0.20087902 0.5565415 0.0014412866 685 146
0.17449442 -0.19990988 0.55290157 0.0014082263 750 160
0.17648995 -0.19907206 0.54963505 0.0012997749 799 171
0.17903778 -0.19887322 0.54814237 0.0013760804 829 177
0.18234996 -0.19951668 0.5489769 0.0012990751 809 173
0.18756694 -0.2021945 0.55540496 0.0014190475 701 150
0.19160822 -0.20354538 0.5581851 0.0016466121 614 131
0.19695975 -0.20622948 0.56462282 0.0016415692 576 123
0.19951971 -0.20595601 0.56297636 0.0016560461 552 118
0.2010392 -0.20463113 0.55849117 0.0016821335 564 120
0.20207681 -0.20285892 0.55283052 0.0016510715 556 119
0.20465231 -0.20265771 0.55149585 0.0016941053 549 117
0.20715502 -0.20239078 0.55002511 0.0017567727 505 108
0.20627007 -0.19886486 0.53975588 0.002191724 399 85
0.20626701 -0.19626996 0.53208262 0.0029554528 279 59
0.20976673 -0.197032 0.53356755 0.0037249879 216 46
0.21415612 -0.19859973 0.53728312 0.003474792 188 40
nan nan nan 0 187 40
0.28350702 -0.25639904 0.69251519 0.0038731247 172 36
0.28660655 -0.2560305 0.69107604 0.0036651546 200 42
0.287678 -0.25388107 0.6849196 0.0033652689 201 43
0.28790104 -0.2510432 0.67699957 0.0039798771 163 34
0.29271749 -0.25223038 0.6800248 0.0043012649 150 32
0.29741853 -0.25329155 0.68279952 0.0048659053 130 27
0.30111626 -0.25348368 0.68332261 0.0066679483 105 22
0.29451171 -0.2450977 0.66081023 0.0084776422 70 15
0.29456067 -0.24237548 0.65365207 0.0072984556 84 18
0.2889348 -0.23509656 0.63428235 0.0057868985 117 25
0.29299048 -0.2357688 0.63644165 0.0052315146 121 25
0.295486 -0.23518462 0.63529283 0.0051504835 119 25
0.31042826 -0.24441288 0.66075075 0.0048239166 131 28
0.31029224 -0.24169911 0.6540212 0.004716475 152 32
0.30919632 -0.23830287 0.6455093 0.0031011705 264 56
0.31035858 -0.23669976 0.64191824 0.0025049285 301 64
0.3145411 -0.23740946 0.64467198 0.0042137364 151 32
0.31858903 -0.23800413 0.64719194 0.0055885105 111 23
0.3206684 -0.23713095 0.64579111 0.0050759804 120 25
0.3215574 -0.23540393 0.64212298 0.00556819 110 23
0.31872591 -0.23101452 0.63123131 0.0056975139 110 23
0.32387406 -0.23243821 0.63627326 0.0057024648 103 22
0.32389897 -0.23019318 0.6313296 0.0078847287 88 18
0.32846585 -0.23118825 0.63532466 0.0057504773 107 22
0.35340697 -0.24636763 0.67844868 0.0065939813 93 19
-0.36587808 -0.22274178 0.63837838 0.0058164774 104 22
-0.36319268 -0.22299233 0.63891459 0.0067949849 83 17
-0.36411902 -0.22548378 0.64532042 0.0095165959 55 11
nan nan nan 0 94 20
-0.35316524 -0.2225281 0.63443774 0.0079619754 73 15
-0.35553098 -0.22599638 0.64283675 0.0099494988 58 12
nan nan nan 0 65 13
nan nan nan 0 63 13
nan nan nan 0 39 8
nan nan nan 0 68 14
nan nan nan 0 68 14
nan nan nan 0 51 10
-0.33624473 -0.2278149 0.63726264 0.0098369308 60 12
-0.32750559 -0.2240016 0.62524086 0.0043569035 152 32
nan nan nan 0 181 38
-0.32928497 -0.22958013 0.63820434 0.0075617242 88 18
-0.32837117 -0.23118149 0.64143336 0.0037476111 171 36
-0.32105142 -0.22826 0.63218266 0.003877365 169 36
-0.32634413 -0.23433684 0.64790398 0.0083327871 71 15
nan nan nan 0 53 11
-0.31789726 -0.23291692 0.64198047 0.0032909247 214 45
-0.31059569 -0.22990659 0.63280374 0.0019710355 416 89
-0.30609965 -0.22893198 0.62931883 0.0020386877 444 95
-0.30646038 -0.23160741 0.63593811 0.002904058 243 52
-0.30765957 -0.23498 0.64453191 0.0056721899 103 22
-0.30378649 -0.23450935 0.64265722 0.0052281367 128 27
-0.29808778 -0.23260391 0.63693875 0.0043699634 156 33
nan nan nan 0 91 19
nan nan nan 0 50 10
-0.29267055 -0.23605101 0.64538133 0.011636901 48 10
-0.29398194 -0.23979466 0.65545738 0.0036570472 182 39
-0.28430009 -0.23455444 0.6410656 0.0020484785 398 85
-0.28114951 -0.23464364 0.64132953 0.0019495178 435 93
-0.28047398 -0.23682481 0.6473996 0.0026074604 287 61
-0.28340986 -0.24214332 0.662139 0.004232022 152 32
nan nan nan 0 109 23
nan nan nan 0 119 25
-0.26586586 -0.23553836 0.64516777 0.0022309781 357 76
-0.26251099 -0.23546322 0.64548576 0.0017843891 491 105
nan nan nan 0 107 22
-0.27045855 -0.24879025 0.68336058 0.0051048966 144 30
nan nan nan 0 134 28
nan nan nan 0 129 27
nan nan nan 0 182 39
nan nan nan 0 383 82
-0.23723583 -0.23312008 0.6445418 0.0012146421 902 193
-0.2391208 -0.23822336 0.65966433 0.0020161003 409 87
nan nan nan 0 363 77
-0.22940949 -0.23505281 0.65298951 0.0016521874 547 117
-0.22269168 -0.23146333 0.64409614 0.0032218702 260 55
-0.22063185 -0.23268113 0.64859033 0.0024132875 311 66
-0.20966449 -0.22440144 0.62659323 0.00238504 365 78
-0.20612189 -0.22393848 0.62639242 0.0051879659 129 27
nan nan nan 0 258 55
-0.17189643 -0.19256566 0.54053169 0.0016225084 572 122
-0.16858168 -0.19183689 0.53943139 0.0014464343 681 146
-0.16447286 -0.19016664 0.53566957 0.0014394557 718 153
-0.16211331 -0.19049737 0.53753251 0.0013997849 721 154
-0.16026938 -0.19145507 0.54116338 0.0015072642 709 152
-0.15964527 -0.19392681 0.54908109 0.0014846203 725 155
-0.15746285 -0.19455795 0.55179077 0.0014443772 693 148
-0.15576446 -0.19581965 0.55628455 0.0014766229 667 143
-0.15308677 -0.19587316 0.55733764 0.0014654612 711 152
-0.14914016 -0.19427568 0.55367017 0.0013126468 799 171
-0.14654133 -0.19440736 0.5549072 0.0012900651 830 178
-0.14440997 -0.19517578 0.55794775 0.0013181954 790 169
-0.14274798 -0.19662012 0.56291163 0.0014143346 748 160
-0.1404912 -0.19728553 0.56563491 0.0014632688 760 162
-0.13783981 -0.19741225 0.56679726 0.0014599229 745 159
-0.13590883 -0.19859684 0.57098156 0.001463493 684 146
-0.1336855 -0.19939445 0.57404041 0.0014610832 683 146
-0.13242431 -0.20169118 0.58140564 0.0015563492 655 140
-0.13124752 -0.20421854 0.58943212 0.0016690654 583 125
-0.1287166 -0.20470399 0.59155428 0.0017957049 558 119
-0.12467752 -0.20275871 0.5866254 0.0015485078 631 135
-0.12136622 -0.20193441 0.58490914 0.0014237547 702 150
-0.11832701 -0.20153457 0.58439696 0.0013910625 733 157
-0.11505542 -0.20070997 0.58262831 0.001359803 757 162
-0.11220504 -0.20059745 0.58290297 0.001370704 751 161
-0.10953021 -0.20080103 0.58407617 0.0014014399 723 155
-0.10692149 -0.20113963 0.58562315 0.0014230841 700 150
-0.10431676 -0.20150407 0.58722746 0.0014737487 679 145
-0.10140174 -0.20127273 0.58707613 0.0015179357 667 143
-0.099270135 -0.20262735 0.59153426 0.001489491 655 140
-0.095802791 -0.20125501 0.58801234 0.0014902054 654 140
-0.093575642 -0.20248377 0.59207088 0.0015121363 643 137
-0.091081902 -0.20319396 0.59459919 0.001579879 597 128
-0.088744059 -0.20430844 0.59829628 0.0017246382 525 112
-0.08576294 -0.20396666 0.59771264 0.0017667578 505 108
-0.082773328 -0.20358068 0.59698039 0.0019359059 491 105
-0.079556257 -0.20258814 0.5944497 0.0018314206 474 101
-0.076448299 -0.20181093 0.59253085 0.0018692615 458 98
-0.073009938 -0.20006907 0.58775908 0.0018180509 482 103
-0.069722116 -0.19861831 0.58382112 0.0017148927 524 112
-0.066501148 -0.19724627 0.58009487 0.0016622506 543 116
-0.063473597 -0.19635469 0.57776296 0.0016876594 538 115
-0.061021559 -0.19724329 0.58065462 0.0016739923 543 116
-0.058259144 -0.19716506 0.58068675 0.0016817652 547 117
-0.055992179 -0.19883852 0.58586586 0.0016984326 534 114
-0.053360961 -0.199325 0.58753622 0.0017365523 530 113
-0.052231085 -0.2057797 0.60679293 0.0018258377 475 101
-0.049841207 -0.20773013 0.61276305 0.0019919621 473 101
-0.047124531 -0.20847446 0.61516446 0.0017998479 486 104
-0.044479385 -0.20965344 0.61883676 0.0018791764 457 98
-0.041967217 -0.2116683 0.62496567 0.001932568 470 100
-0.039400857 -0.21369272 0.63111281 0.0020520187 461 98
-0.036659643 -0.21502143 0.63519472 0.0020906606 454 97
-0.033682942 -0.21508202 0.63551831 0.0017774857 510 109
-0.030631479 -0.21463062 0.63431609 0.0017857429 501 107
-0.028185386 -0.21878089 0.64670271 0.0023108562 353 75
nan nan nan 0 136 29
nan nan nan 0 65 13
nan nan nan 0 51 10
nan nan nan 0 51 10
-0.014981186 -0.25225195 0.74611998 0.011090739 52 11
nan nan nan 0 76 16
nan nan nan 0 127 27
-0.0042037242 -0.23714933 0.70155859 0.0041325954 158 33
-0.00090860057 -0.23672813 0.70032275 0.0028615682 253 54
0.0022521755 -0.22410282 0.66297007 0.0011044124 1104 236
0.0054687723 -0.22845908 0.67584175 0.0013628937 755 161
0.0087985946 -0.23260982 0.68809205 0.001595885 584 125
0.01161737 -0.22464891 0.66450232 0.0013397802 779 167
nan nan nan 0 396 84
0.01897925 -0.23876496 0.7061314 0.0017934423 528 113
0.022369565 -0.23956144 0.70840365 0.0014196303 728 156
0.025411619 -0.23690489 0.70045209 0.002111152 385 82
0.028689919 -0.23680739 0.70005429 0.0020125564 411 88
0.031867463 -0.23598383 0.69749683 0.0018455184 468 100
0.034403268 -0.23100483 0.68264657 0.0018152844 512 109
0.038205087 -0.23465094 0.69327122 0.0015905484 587 125
nan nan nan 0 453 97
nan nan nan 0 832 178
nan nan nan 0 2512 255
0.051874172 -0.2375536 0.70109379 0.0013535265 793 170
0.055594943 -0.23936909 0.7062242 0.0029005974 259 55
0.057392851 -0.23316771 0.68769097 0.0021675867 376 80
0.059837203 -0.23011476 0.67843759 0.00152867 626 134
0.063984528 -0.23358847 0.6884101 0.0022561471 395 84
0.066720068 -0.23182163 0.68291992 0.0020080751 459 98
0.06898661 -0.22866286 0.6733194 0.0016396354 557 119
0.07378003 -0.23378918 0.68809551 0.0022588496 347 74
0.077096209 -0.23399961 0.68837857 0.0026685591 328 70
0.080352478 -0.23401856 0.68808043 0.0020699876 399 85
0.085669629 -0.23980483 0.70471263 0.0029300696 246 52
0.088410094 -0.23821533 0.69964427 0.0041482365 188 40
0.090082608 -0.23396672 0.68675727 0.0023452186 328 70
0.092553601 -0.23201562 0.68060595 0.0019843928 424 90
0.095249332 -0.23074026 0.67642349 0.0015669804 606 129
nan nan nan 0 651 139
0.089340046 -0.20278069 0.59363121 0.0014365751 694 148
0.091159709 -0.2005879 0.58677614 0.0014417466 734 157
0.09401238 -0.20073082 0.58673984 0.0013442505 774 165
0.097768888 -0.20273972 0.5921343 0.0014664003 722 154
0.1018761 -0.20534308 0.599235 0.0015592333 612 131
0.10450828 -0.20491247 0.59745705 0.0015904177 607 130
0.10587375 -0.20208688 0.58868468 0.0016499232 605 129
0.10853502 -0.20181674 0.58734471 0.0016648181 579 124
0.11220104 -0.20338137 0.59132081 0.0016849692 542 116
0.11543533 -0.20410591 0.59282696 0.0017196421 520 111
0.12045416 -0.20787537 0.60314262 0.0018091578 481 103
0.12370892 -0.20849524 0.60428488 0.0018213422 482 103
0.1268554 -0.20890848 0.60480309 0.0018053645 507 108
0.12938976 -0.20831771 0.60239333 0.0017036942 531 113
0.13156426 -0.20718606 0.59840328 0.0016747781 572 122
0.1344787 -0.20724316 0.59782851 0.001621827 616 132
0.13857718 -0.20908436 0.6023711 0.00182226 535 114
0.14143699 -0.20901942 0.60139364 0.0016522096 561 120
0.14364003 -0.20800605 0.5976696 0.0015605352 601 128
0.14622648 -0.20757687 0.59560812 0.0015380244 620 132
0.14939424 -0.20797358 0.59589523 0.0015610892 609 130
0.15427279 -0.21069163 0.60279989 0.00175658 504 108
0.15759964 -0.21122882 0.60343087 0.0017664627 501 107
0.15853497 -0.20859958 0.59500551 0.0016895856 585 125
0.16077965 -0.20775667 0.59167218 0.0015565512 610 130
0.163341 -0.20734549 0.5895564 0.0015862496 606 129
0.16978386 -0.21179032 0.60121304 0.0017646813 501 107
0.17415226 -0.21354014 0.60517538 0.00203227 457 98
0.17520955 -0.21123938 0.59764749 0.0017316724 509 109
0.17178769 -0.20370309 0.57534271 0.0015957728 593 127
0.17123546 -0.19975862 0.56322926 0.0014678141 667 143
0.17189209 -0.1973277 0.55540788 0.0013801528 740 158
0.17408323 -0.19670697 0.55269229 0.0013748849 775 166
0.17636465 -0.19620584 0.55031711 0.0013069594 803 172
0.17907964 -0.19619504 0.54932112 0.0013658336 808 173
0.18363267 -0.19816802 0.55387509 0.0013592078 759 162
0.188334 -0.20024048 0.55869544 0.0015575488 652 139
0.19398507 -0.20324765 0.56611174 0.001714873 567 121
0.19612983 -0.20254755 0.56320715 0.0018059819 559 119
0.1973051 -0.20088015 0.55764467 0.0016721603 612 131
0.19936875 -0.20015115 0.55472291 0.001699278 608 130
0.20269744 -0.20069477 0.55535817 0.0017383287 576 123
0.20485838 -0.20008305 0.55283028 0.0016684104 544 116
0.20396207 -0.19654173 0.54226267 0.0017727603 551 118
0.20360377 -0.19360551 0.53343153 0.0019811317 430 92
0.2065873 -0.19388212 0.53350794 0.0027230019 267 57
0.20999181 -0.19454163 0.53468436 0.0034046327 196 42
nan nan nan 0 215 46
nan nan nan 0 309 66
0.27227953 -0.24287209 0.66554457 0.0018628556 456 97
0.27498746 -0.24228615 0.66343564 0.0017335153 513 110
0.27808675 -0.24205498 0.66238201 0.0026589881 314 67
nan nan nan 0 149 31
0.29244342 -0.24854247 0.6795342 0.0046529188 147 31
0.29790699 -0.25023234 0.68398863 0.0056471447 126 27
0.3022624 -0.25096315 0.68591279 0.0052000056 119 25
0.30696619 -0.25196329 0.68866712 0.0067873285 86 18
nan nan nan 0 105 22
0.30963567 -0.24848917 0.67949224 0.0052136816 119 25
0.29918829 -0.23745836 0.64961451 0.0054119835 114 24
0.29946139 -0.23508391 0.64348859 0.0053823069 114 24
0.30970606 -0.24050416 0.65879107 0.005981816 125 26
0.31195015 -0.23966214 0.65703458 0.0039024451 167 35
0.31212521 -0.23726508 0.65109068 0.0028414235 249 53
0.31035691 -0.2334563 0.64133656 0.0024215311 309 66
0.31301162 -0.2330189 0.64090931 0.0038744819 172 36
0.32254437 -0.23765841 0.65453744 0.0053226729 114 24
0.32379818 -0.23616557 0.65136266 0.0052736872 114 24
0.32701638 -0.23612107 0.65224904 0.0057536708 106 22
0.32816815 -0.23460022 0.64912033 0.0058291112 104 22
0.32276845 -0.22847176 0.63327384 0.0050808378 129 27
0.32361031 -0.22683777 0.62991029 0.0058572143 102 21
0.32769111 -0.2274837 0.63293421 0.0052455701 114 24
0.34243387 -0.2354482 0.65642822 0.007477053 92 19
-0.33603445 -0.20173231 0.58627552 0.0083214287 85 18
-0.35641423 -0.21579142 0.6266076 0.0099505214 61 13
-0.35253578 -0.21527886 0.62416369 0.010469343 59 12
nan nan nan 0 66 14
nan nan nan 0 76 16
nan nan nan 0 54 11
nan nan nan 0 90 19
nan nan nan 0 65 13
nan nan nan 0 33 7
nan nan nan 0 55 11
-0.34815234 -0.2283102 0.64959878 0.0067478823 88 18
-0.33862299 -0.22413103 0.63625491 0.0072366991 91 19
-0.33399051 -0.22314495 0.63206059 0.0045846938 146 31
-0.33036032 -0.22281612 0.6297909 0.0033921194 208 44
-0.33024624 -0.22487523 0.63431793 0.0042072306 160 34
-0.33285308 -0.22884493 0.6442607 0.0047419518 132 28
-0.32933545 -0.2286403 0.6424945 0.004772868 131 28
-0.32576737 -0.2283963 0.64068532 0.0054114196 112 24
nan nan nan 0 58 12
-0.35196358 -0.25173378 0.70390123 0.013960023 44 9
-0.32338455 -0.2336468 0.65239245 0.0056822728 126 27
-0.31523544 -0.23010038 0.64164585 0.0019766104 413 88
-0.30624697 -0.22586127 0.62907225 0.0015144293 636 136
-0.3039152 -0.22649407 0.63015848 0.0018875054 450 96
nan nan nan 0 103 22
nan nan nan 0 98 21
-0.29840106 -0.22961462 0.63727927 0.0046744328 153 32
nan nan nan 0 100 21
-0.30631101 -0.24092299 0.66802287 0.014137426 40 8
-0.30210519 -0.2402765 0.66604853 0.015493637 40 8
-0.29678938 -0.23872258 0.6616528 0.0045900322 135 28
nan nan nan 0 166 35
nan nan nan 0 184 39
-0.28577396 -0.23794881 0.65979552 0.0034823434 193 41
-0.28344861 -0.23881313 0.66246992 0.0032257414 217 46
nan nan nan 0 309 66
nan nan nan 0 415 89
-0.26394254 -0.23058695 0.6409567 0.0012752904 826 177
-0.2631748 -0.23278029 0.64765239 0.0017740438 508 108
-0.25571272 -0.2290331 0.63788861 0.0061738379 113 24
nan nan nan 0 184 39
-0.24754713 -0.22745779 0.63501525 0.0023172142 332 71
nan nan nan 0 193 41
nan nan nan 0 170 36
nan nan nan 0 150 32
-0.24096425 -0.2334954 0.65566015 0.0022582386 344 73
-0.23426348 -0.23014309 0.64728963 0.0018501399 465 99
-0.22569469 -0.22483575 0.63341367 0.0042769164 180 38
-0.22819725 -0.2305636 0.65065569 0.0024857861 309 66
-0.22143526 -0.22696102 0.64159966 0.0019966229 409 87
-0.22118138 -0.23002116 0.65139359 0.0023906475 316 67
nan nan nan 0 535 114
nan nan nan 0 233 49
-0.17295276 -0.18813136 0.53562033 0.0020777246 415 89
-0.17007498 -0.18787923 0.53585774 0.0014571425 698 149
-0.16732436 -0.18776181 0.53647518 0.0013649216 751 161
-0.16550085 -0.18869768 0.54010111 0.0014798777 686 147
-0.16222067 -0.1879762 0.53897703 0.0014664299 695 149
-0.16144641 -0.19018266 0.54624581 0.001445897 684 146
-0.15966608 -0.1912585 0.55027199 0.0014781337 680 145
-0.15768333 -0.19212458 0.55369079 0.0014795843 679 145
-0.155699 -0.193019 0.55718488 0.0015855398 655 140
-0.1544634 -0.19488981 0.56349438 0.0016013334 626 134
-0.15173814 -0.19491482 0.56445831 0.0014301077 709 152
-0.14634702 -0.19145328 0.55529153 0.0013268981 789 169
-0.14448172 -0.19256082 0.55934757 0.0013150612 795 170
-0.14208145 -0.19298413 0.56140316 0.0013517217 757 162
-0.13971484 -0.19347058 0.56362605 0.0013752115 774 165
-0.13719848 -0.19376485 0.56527174 0.0013747032 747 160
-0.1351871 -0.19479878 0.56905955 0.0014217464 704 150
-0.1324704 -0.19483809 0.56992501 0.0015103061 702 150
-0.12990941 -0.19511297 0.57145923 0.0014272678 700 150
-0.13027675 -0.19989286 0.58618504 0.0015761917 650 139
-0.12787455 -0.20054054 0.58879101 0.001692021 589 126
-0.12554964 -0.20134142 0.59182972 0.0016227851 570 122
-0.12145282 -0.19927205 0.58640575 0.0015841911 640 137
-0.11823807 -0.19858629 0.58502293 0.0015298006 690 147
-0.11463547 -0.19720012 0.58154911 0.0014423908 731 156
-0.11203963 -0.19751997 0.5830822 0.0014183407 710 152
-0.10930786 -0.19761036 0.58391881 0.001430721 695 149
-0.10677243 -0.19806971 0.58582699 0.0015916396 663 142
-0.10367763 -0.19748819 0.58463627 0.0014773057 665 142
-0.10084587 -0.19738945 0.58485353 0.00146714 703 150
-0.09804891 -0.19735517 0.58524233 0.0014502045 698 149
-0.095471561 -0.19777384 0.5869562 0.0015554278 678 145
-0.092974491 -0.19838896 0.58923703 0.001534361 624 133
-0.090862095 -0.19988845 0.59413111 0.0016881549 583 125
-0.086944796 -0.19738625 0.58711082 0.0016056675 577 123
-0.083966404 -0.19692071 0.5861249 0.0016228796 575 123
-0.080961488 -0.19635904 0.58483386 0.0016758166 539 115
-0.077817582 -0.19540864 0.58236557 0.0017678912 537 115
-0.07520473 -0.19577096 0.58379233 0.0018183884 518 111
-0.07188201 -0.19424263 0.5795632 0.0017336052 514 110
-0.069024146 -0.19389921 0.57885122 0.001645292 558 119
-0.066091277 -0.1933081 0.57738334 0.0016202562 574 123
-0.063286334 -0.19305649 0.57691342 0.0016461682 556 119
-0.060467161 -0.19273688 0.57622522 0.0017380961 560 120
-0.057922322 -0.19330278 0.5781709 0.0017169093 545 116
-0.055870328 -0.1956504 0.58543545 0.0017370444 517 110
-0.053626362 -0.19753443 0.59130436 0.0018004522 522 111
-0.051089242 -0.19848569 0.59437108 0.0017739207 500 107
-0.049772177 -0.20456149 0.61277729 0.0019205394 447 95
-0.046936568 -0.20475923 0.61356854 0.0017924145 494 105
-0.044885848 -0.20863104 0.62535983 0.0018970921 471 101
-0.042037416 -0.20907779 0.62687552 0.0018882578 457 98
-0.039386909 -0.21065041 0.63175541 0.0018874937 461 98
-0.036520239 -0.21122892 0.63364273 0.0018515119 466 99
-0.033266712 -0.20947407 0.62851697 0.0016670498 547 117
-0.030612335 -0.21151759 0.6347757 0.0016874254 538 115
-0.02767507 -0.21183632 0.63584745 0.0017754155 495 106
-0.025246106 -0.21659294 0.65023011 0.0023932329 337 72
nan nan nan 0 171 36
nan nan nan 0 108 23
nan nan nan 0 80 17
nan nan nan 0 76 16
-0.011023039 -0.23889023 0.71754712 0.0083895605 72 15
-0.0075856098 -0.23661256 0.71074158 0.0060294787 117 25
-0.0041993088 -0.2336102 0.70174563 0.0033221298 208 44
-0.00090969686 -0.23372215 0.70209157 0.0029943485 234 50
0.0023048904 -0.22616303 0.67938167 0.0010970127 1111 238
0.0055027725 -0.22668689 0.68094021 0.0011853798 966 207
nan nan nan 0 2230 255
nan nan nan 0 592 126
nan nan nan 0 243 52
0.01887075 -0.23410301 0.70302695 0.0028990498 266 57
nan nan nan 0 213 45
0.02528362 -0.23243806 0.69785517 0.0020361682 455 97
0.028539617 -0.23229527 0.69732106 0.002508336 301 64
0.031804368 -0.23224579 0.69705367 0.0024856734 337 72
0.035003267 -0.2317695 0.69549221 0.0016198389 577 123
0.038353756 -0.23229255 0.69691581 0.0020154812 409 87
nan nan nan 0 548 117
0.04491125 -0.23236768 0.6968075 0.0021113013 388 83
0.047284164 -0.22802912 0.68361276 0.0012329451 942 202
0.051812988 -0.23397817 0.70124328 0.0019845066 481 103
0.056099277 -0.23818605 0.71363157 0.0032454038 232 49
0.057876498 -0.23186709 0.69446737 0.0020734766 400 85
0.060798086 -0.2305629 0.69031519 0.0018760259 458 98
0.064230502 -0.2312299 0.69205004 0.0016280006 566 121
0.067561679 -0.23148569 0.69253713 0.0020728072 398 85
0.068991914 -0.22550459 0.6743564 0.0018379365 528 113
0.072894156 -0.22777422 0.68083727 0.00185465 492 105
0.075732574 -0.22666848 0.67721081 0.0017353272 552 118
0.081527799 -0.23414402 0.69919568 0.0022844367 347 74
0.085510343 -0.23603478 0.70447147 0.0030036722 272 58
0.087388188 -0.2321918 0.69261926 0.0025486043 289 61
0.092187755 -0.23610911 0.70389658 0.0020412295 450 96
0.092728496 -0.22922577 0.68296117 0.0014333922 693 148
0.094109252 -0.22481225 0.66938609 0.0015559387 609 130
nan nan nan 0 642 137
0.08926262 -0.19979121 0.59407747 0.001429597 694 148
0.090991467 -0.19743709 0.58665246 0.0014139063 743 159
0.093413785 -0.19668274 0.58396971 0.0013709585 776 166
0.097222 -0.19880579 0.5898087 0.0015177558 702 150
0.1016088 -0.20195997 0.59867543 0.0015299491 630 135
0.10373525 -0.20057201 0.59405416 0.0015722247 625 134
0.10563445 -0.1988299 0.58837241 0.0015516882 610 130
0.10798915 -0.19801298 0.58541542 0.0016326507 601 128
0.11010868 -0.19681682 0.58132273 0.0017170312 588 126
0.11440451 -0.19947399 0.58858663 0.0016770439 545 116
0.11786151 -0.20057623 0.59123063 0.0017744018 524 112
0.1232212 -0.20478912 0.60300583 0.0018494329 491 105
0.12638798 -0.20524812 0.60369098 0.0018755714 498 106
0.12859258 -0.20415896 0.59980273 0.0017773258 529 113
0.13144892 -0.20412956 0.59900945 0.001649398 554 118
0.13424692 -0.20401277 0.59793794 0.0015870123 586 125
0.1379925 -0.2053107 0.60098612 0.0016880607 556 119
0.14118542 -0.20575 0.60149187 0.0017951316 544 116
0.14308622 -0.20432645 0.59653318 0.0015403673 619 132
0.14562827 -0.20385669 0.59434444 0.0015834252 628 134
0.14846721 -0.20381266 0.59337705 0.001625873 625 134
0.15268217 -0.20562345 0.59778064 0.001693916 539 115
0.15635 -0.20664372 0.59985292 0.0017477695 512 109
0.15695888 -0.20365758 0.59028322 0.0016160833 610 130
0.15932336 -0.20301571 0.5875048 0.0015193981 635 136
0.16322231 -0.20431729 0.59032845 0.0016865341 583 125
0.16945077 -0.20843928 0.60125774 0.0018022686 493 105
0.17240129 -0.20845738 0.60031289 0.0019444005 489 104
0.1687891 -0.20067246 0.57691938 0.0016285495 567 121
0.16905376 -0.19767727 0.56733537 0.0014957362 645 138
0.17120568 -0.19695014 0.56426781 0.0014976759 693 148
0.17050737 -0.19301966 0.552037 0.0013542541 755 161
0.17346168 -0.19328254 0.5518111 0.0013230827 786 168
0.17598017 -0.19305919 0.55019289 0.0012951463 813 174
0.17950863 -0.19393376 0.5516991 0.0013091046 791 169
0.18346898 -0.1952417 0.55442899 0.0014522651 693 148
0.18971863 -0.19891126 0.56384528 0.0016263142 604 129
0.19237666 -0.19876318 0.56243104 0.0015900328 593 127
0.19389653 -0.19746026 0.55776918 0.0016582374 623 133
0.19526477 -0.19604193 0.55281174 0.001482171 665 142
0.19892612 -0.1969333 0.55439109 0.0015772502 620 132
0.20243238 -0.19764875 0.55549324 0.0016543956 552 118
0.20309249 -0.19560355 0.54887289 0.0017244489 574 123
0.2005758 -0.1905944 0.53400058 0.0015384388 615 131
0.20113717 -0.18860385 0.52765357 0.0017888397 521 111
0.20417804 -0.18895982 0.52792013 0.0025764673 286 61
0.21134955 -0.19308025 0.53873432 0.0037267385 178 38
nan nan nan 0 229 49
nan nan nan 0 545 116
0.27090165 -0.23828714 0.66268992 0.0014976221 651 139
0.27517906 -0.23908778 0.66433668 0.0021652677 410 87
0.27211177 -0.23356475 0.64850307 0.0030273583 237 50
0.27228579 -0.23092264 0.64076698 0.0047179819 153 32
0.27887899 -0.23372267 0.64821655 0.0040721563 160 34
0.28146958 -0.23314202 0.64637411 0.0058176359 120 25
0.30323836 -0.2482769 0.68818188 0.0052218963 117 25
0.31136853 -0.25202736 0.69851941 0.0056019714 112 24
nan nan nan 0 113 24
0.3142857 -0.2487181 0.68952107 0.0051524816 136 29
0.31175888 -0.24399897 0.67666501 0.0046795728 136 29
0.31409687 -0.24314871 0.67462617 0.0045808409 138 29
0.31645072 -0.24232896 0.67276162 0.0048014522 139 29
0.31689349 -0.24007881 0.66701061 0.0038730472 170 36
0.31176716 -0.23370157 0.64986104 0.0033006805 210 45
0.31204626 -0.23146717 0.64429379 0.0037300149 178 38
0.31198382 -0.22902828 0.63822472 0.0047832774 140 30
0.31771672 -0.23085012 0.64410579 0.0057698549 100 21
0.32104856 -0.23090813 0.64514905 0.00607685 99 21
0.32626861 -0.23230942 0.65002573 0.0063936603 93 19
0.33012658 -0.23272271 0.65221852 0.0056212246 107 22
0.33534428 -0.23407695 0.65712702 0.0050823968 121 25
0.33826557 -0.23381755 0.65757912 0.0055483864 117 25
0.34209993 -0.23418814 0.65986979 0.0059476024 123 26
0.34047982 -0.23085342 0.65176725 0.0050699208 122 26
-0.28124008 -0.16645962 0.49047813 0.0091430312 63 13
nan nan nan 0 68 14
nan nan nan 0 57 12
nan nan nan 0 116 24
nan nan nan 0 71 15
nan nan nan 0 69 14
-0.34955567 -0.21795043 0.63412178 0.006126083 109 23
-0.34914288 -0.2196494 0.63747871 0.0064701457 111 23
-0.39078885 -0.2480787 0.71822977 0.018064866 33 7
-0.39433584 -0.25262114 0.72963637 0.014656683 46 9
-0.35358694 -0.22860847 0.65875113 0.007591127 76 16
-0.34661245 -0.22618815 0.65031499 0.0039880448 155 33
-0.32872951 -0.21653683 0.62122041 0.0018706119 444 95
-0.32911587 -0.21885058 0.62655455 0.002409375 355 76
-0.329449 -0.22117296 0.63194561 0.0070652398 98 21
-0.32684779 -0.2215513 0.6318289 0.0061735003 101 21
nan nan nan 0 77 16
nan nan nan 0 74 15
nan nan nan 0 70 15
nan nan nan 0 40 8
-0.33716375 -0.24017154 0.67953873 0.0080103017 69 14
-0.32766077 -0.23580164 0.66634905 0.0030238987 233 49
-0.31189594 -0.22678784 0.64016318 0.001928456 431 92
-0.30501464 -0.22411208 0.63198602 0.0018698837 495 106
-0.30479231 -0.22632416 0.63767755 0.0024018148 317 67
-0.30885878 -0.23180249 0.65264124 0.0064829718 109 23
-0.30727941 -0.23311633 0.65595609 0.010007532 73 15
nan nan nan 0 88 18
-0.30421892 -0.23590758 0.66331041 0.0087847244 65 13
-0.30051959 -0.23564923 0.66247505 0.0073673059 96 20
-0.29994172 -0.23786038 0.66867656 0.0057391808 129 27
nan nan nan 0 88 18
-0.3117505 -0.25295603 0.71138442 0.0068151667 89 19
nan nan nan 0 72 15
nan nan nan 0 82 17
-0.28651476 -0.24085461 0.67843956 0.0043987469 151 32
nan nan nan 0 301 64
-0.2654019 -0.22859645 0.64501667 0.0014256422 695 149
-0.26314709 -0.22947776 0.64817452 0.0016004265 584 125
-0.26071557 -0.23022527 0.65103126 0.0034569069 190 40
-0.25639606 -0.22930335 0.64923382 0.0041472255 169 36
-0.2538507 -0.22996481 0.65198082 0.002247503 348 74
nan nan nan 0 347 74
-0.24618664 -0.22894733 0.65100193 0.0019496568 462 99
nan nan nan 0 133 28
-0.24183737 -0.23104107 0.65906388 0.0061601908 120 25
-0.23441841 -0.2270519 0.64877474 0.001789636 483 103
-0.2313302 -0.22720429 0.65033042 0.002551978 347 74
-0.23430215 -0.23339775 0.66923308 0.0026339269 277 59
-0.22568625 -0.22806033 0.65509558 0.001844566 469 100
-0.2208638 -0.22645605 0.65165973 0.0021393327 413 88
nan nan nan 0 429 92
nan nan nan 0 251 53
-0.17212646 -0.18459563 0.53409821 0.0017454443 548 117
-0.16981117 -0.1849459 0.53607899 0.0015179041 687 147
-0.16730438 -0.18509534 0.53747535 0.0014244959 702 150
-0.16489197 -0.18535571 0.53918868 0.0015669001 680 145
-0.16315171 -0.18639246 0.54315746 0.0014935416 653 140
-0.16165164 -0.18774259 0.54803991 0.0016252721 644 138
-0.15996456 -0.18891738 0.55240983 0.0015351436 636 136
-0.15711541 -0.18873654 0.55280578 0.0016372311 633 135
-0.15422867 -0.1885035 0.55303025 0.0014543018 679 145
-0.15267697 -0.18992284 0.55809087 0.0014886284 654 140
-0.15213735 -0.19267531 0.56706959 0.0015816231 612 131
-0.14776422 -0.19058481 0.56177855 0.001410311 715 153
-0.1437373 -0.18887071 0.55755997 0.0013448215 790 169
-0.14140996 -0.18936703 0.55984074 0.0013204523 791 169
-0.13941574 -0.19033749 0.56350869 0.0014064094 768 164
-0.13694 -0.19067606 0.56529009 0.0014102682 756 162
-0.13466477 -0.19131325 0.56793934 0.0013829096 733 157
-0.13206966 -0.191513 0.5692715 0.0013930702 727 155
-0.12927054 -0.19141904 0.56970954 0.0014663994 727 155
-0.12788667 -0.19346203 0.57649302 0.0014507094 682 146
-0.12591927 -0.19469301 0.58084667 0.0015891639 630 135
-0.1243797 -0.19665603 0.58737361 0.0015873489 588 126
-0.12137756 -0.19634387 0.58708882 0.001561069 614 131
-0.11802543 -0.1954374 0.58500159 0.001482724 659 141
-0.11472357 -0.19457227 0.58301127 0.0015202195 655 140
-0.11174832 -0.19423185 0.58256876 0.0015383286 680 145
-0.10924158 -0.19470915 0.58455884 0.0015919788 644 138
-0.10629956 -0.19441532 0.58421427 0.0015499139 689 147
-0.10378189 -0.19490266 0.58619756 0.0014536028 680 145
-0.10033387 -0.19362144 0.58284044 0.0014385548 696 149
-0.097538508 -0.19356287 0.58314115 0.0014511938 680 145
-0.095000111 -0.19402562 0.58499497 0.0014547337 681 146
-0.092562586 -0.1947284 0.58755672 0.0015269896 626 134
-0.089708805 -0.19457191 0.58750921 0.0015816266 634 135
-0.086689413 -0.19403474 0.58629316 0.0015463581 618 132
-0.083526872 -0.19313107 0.58394969 0.0017316452 584 125
-0.080799721 -0.19320679 0.58454913 0.0017956598 538 115
-0.077978745 -0.19305559 0.58444548 0.0017858266 531 113
-0.074444436 -0.19106252 0.57874632 0.0017188416 526 112
-0.071441561 -0.19033355 0.57685608 0.0017893822 561 120
-0.068538018 -0.18982205 0.57560784 0.0015870822 593 127
-0.065172523 -0.18793625 0.5701741 0.0015703558 609 130
-0.062462319 -0.18785928 0.57021075 0.0016699093 593 127
-0.060235966 -0.18929592 0.57482982 0.0016087606 584 125
-0.05763549 -0.18963665 0.57610977 0.0016497109 561 120
-0.055543359 -0.19176605 0.58281332 0.0017194977 535 114
-0.053569306 -0.19454521 0.59148419 0.0018322055 487 104
-0.050998904 -0.19534428 0.59412593 0.001888073 506 108
-0.049442131 -0.20034316 0.60953408 0.0019589372 473 101
-0.046876345 -0.20161648 0.61360067 0.0018257505 482 103
-0.044305474 -0.20303318 0.61809337 0.0017611933 504 108
-0.041527346 -0.20363209 0.62008554 0.0019557821 478 102
-0.039336123 -0.20741589 0.63176715 0.001824962 481 103
-0.036399614 -0.20756622 0.63237202 0.0019695938 480 102
-0.033221941 -0.206246 0.62848371 0.001630943 569 122
-0.030227622 -0.20591791 0.62760562 0.0016979704 593 127
-0.027563509 -0.20801099 0.63409597 0.0017633357 552 118
-0.024784571 -0.20963866 0.63915765 0.0017914032 493 105
-0.021841267 -0.21013238 0.64075136 0.0019457194 453 97
-0.019178037 -0.21390727 0.65234029 0.0026951227 319 68
nan nan nan 0 211 45
nan nan nan 0 139 29
-0.010786758 -0.23047726 0.70305002 0.0052660229 120 25
-0.0075347577 -0.23171638 0.70686406 0.0058163903 111 23
-0.0041002757 -0.22488846 0.68605649 0.0046134121 139 29
-0.00089078635 -0.22564036 0.68835962 0.004349093 175 37
nan nan nan 0 254 54
nan nan nan 0 1617 255
nan nan nan 0 2618 255
0.012093384 -0.22735827 0.69351661 0.0014766539 672 144
nan nan nan 0 487 104
nan nan nan 0 477 102
nan nan nan 0 371 79
0.024744969 -0.22428234 0.6838578 0.0021288821 390 83
0.027982246 -0.22455098 0.68457687 0.00268977 329 70
0.031735819 -0.22848143 0.69644469 0.0022138318 404 86
0.035323218 -0.23059402 0.70275527 0.0018165733 490 105
nan nan nan 0 584 125
0.040549021 -0.22309971 0.6796273 0.0015503364 659 141
0.044952281 -0.2293044 0.69836015 0.0019017397 450 96
0.048161991 -0.2289914 0.69722468 0.0014232623 712 152
0.051464055 -0.22912942 0.69744831 0.0014954188 649 139
0.055044752 -0.2304173 0.70115656 0.0022141158 391 83
nan nan nan 0 357 76
0.061078001 -0.22836232 0.69443887 0.0019537813 431 92
0.064336866 -0.22835089 0.69414932 0.0018484393 467 100
0.067696869 -0.22868226 0.69488561 0.0020195863 418 89
0.068139777 -0.21958263 0.66695958 0.0014113244 710 152
0.072298057 -0.22272994 0.67622405 0.0016752549 538 115
0.074744105 -0.22055937 0.66932571 0.0015875446 598 128
nan nan nan 0 316 67
nan nan nan 0 401 86
0.085419841 -0.22376545 0.67801535 0.0021827638 431 92
0.091269881 -0.23046613 0.69792551 0.0011274666 1091 233
0.094643369 -0.23066439 0.69811362 0.001196319 970 208
nan nan nan 0 577 123
nan nan nan 0 639 137
0.088716872 -0.19577309 0.59136474 0.0014125978 715 153
0.090379678 -0.19334769 0.58362609 0.0014301965 759 162
0.093415722 -0.19391675 0.58491272 0.0013561255 795 170
0.096571662 -0.19469476 0.58680844 0.0014006627 729 156
0.10129869 -0.19850798 0.59782273 0.0015247779 629 134
0.10321411 -0.1967538 0.59204638 0.0016686829 615 131
0.10449914 -0.19392283 0.58302218 0.0015918212 624 133
0.10623028 -0.19204456 0.57685512 0.0015188118 632 135
0.10983767 -0.19356732 0.58088505 0.0015482601 621 133
0.1128737 -0.19403318 0.58171743 0.00162163 577 123
0.11664157 -0.19570456 0.58613706 0.0016600245 555 119
0.12057416 -0.19756763 0.59109885 0.0018040176 510 109
0.12549004 -0.20091982 0.60047776 0.0018746936 505 108
0.12854472 -0.20120877 0.60066772 0.0018157217 537 115
0.13085558 -0.20034625 0.59739983 0.001642078 557 119
0.13348125 -0.19999234 0.59563023 0.0016990511 590 126
0.1370022 -0.20096654 0.59779131 0.001705918 578 123
0.14064036 -0.20206918 0.60030371 0.0016768486 548 117
0.14262916 -0.20080534 0.59576386 0.0015099985 643 137
0.14509302 -0.20024696 0.59330148 0.0014896406 646 138
0.14782067 -0.20006719 0.59194142 0.0016227631 628 134
0.15259148 -0.2026071 0.59859586 0.0016226119 578 123
0.15536609 -0.20245129 0.59725362 0.0017226184 521 111
0.15666838 -0.20041774 0.59035999 0.00156366 626 134
0.15950839 -0.20038898 0.58936018 0.0015545926 637 136
0.16381875 -0.20217587 0.59367204 0.0016730488 547 117
0.16969977 -0.20580566 0.60335052 0.0018441833 465 99
0.16948116 -0.20204042 0.59133178 0.0017178907 533 114
0.16719337 -0.19597585 0.57261473 0.0015460502 626 134
0.16873662 -0.19452767 0.5674085 0.0014752886 661 141
0.16838764 -0.19098027 0.55609119 0.001418747 704 150
0.1698274 -0.18954238 0.55093068 0.0013366441 769 164
0.17235121 -0.18934052 0.54936248 0.0013412787 807 173
0.17520489 -0.18950169 0.54884142 0.001357066 806 172
0.1796845 -0.1913898 0.55330741 0.0013669201 749 160
0.18518412 -0.1942915 0.56067747 0.0014941851 651 139
0.18898493 -0.19535145 0.56271446 0.0015495445 610 130
0.19145474 -0.19502474 0.56075889 0.0014989458 654 140
0.19186209 -0.19263664 0.55289978 0.001512486 682 146
0.19476676 -0.19278802 0.5523544 0.0015633794 677 145
0.19858308 -0.19382495 0.55435801 0.0015488205 615 131
0.20156701 -0.1940321 0.55400449 0.0016196175 572 122
0.19843724 -0.18842833 0.53711176 0.0016166428 645 138
0.19776498 -0.18527685 0.52728081 0.001408699 714 153
0.1981222 -0.18316033 0.52045363 0.0015062718 633 135
0.2027491 -0.18499479 0.52489358 0.002187378 362 77
nan nan nan 0 172 36
nan nan nan 0 221 47
0.25749984 -0.22610992 0.63905805 0.0021641685 429 92
0.26495793 -0.22977671 0.64870924 0.0020059859 413 88
0.27021465 -0.23146802 0.65284109 0.0032946437 246 52
0.27504337 -0.23275621 0.65590662 0.0034741438 211 45
0.27817786 -0.23259707 0.65497333 0.0044280584 172 36
0.2776452 -0.22941157 0.64560926 0.0046327701 144 30
0.28178495 -0.23011608 0.64728391 0.0056267972 126 27
0.30359209 -0.24506585 0.68910253 0.0051037148 136 29
0.30898529 -0.24657609 0.69321197 0.0052209408 132 28
nan nan nan 0 136 29
0.31475833 -0.24558403 0.69044322 0.005585087 132 28
0.31372917 -0.24208297 0.68075532 0.0059569255 128 27
0.31509069 -0.24048281 0.67650533 0.0048431163 128 27
0.31776059 -0.23990503 0.67522383 0.0052869576 122 26
0.31979606 -0.23886569 0.67273384 0.0041538272 157 33
0.31542495 -0.23311348 0.65704763 0.0038611272 171 36
0.31877738 -0.23312993 0.65769565 0.0072502885 83 17
0.31938761 -0.23116134 0.65282363 0.0067899539 87 18
0.31648728 -0.22671825 0.64102548 0.0074436991 90 19
0.31936496 -0.22646227 0.64112973 0.0066130348 97 20
0.32059038 -0.2250516 0.63803518 0.0063552712 93 19
0.32881689 -0.22853486 0.64889848 0.0067977556 101 21
0.33893844 -0.23325381 0.66337997 0.0050902986 121 25
0.34261322 -0.23348744 0.66520005 0.0053413962 119 25
0.34370211 -0.23197131 0.66209775 0.0051955194 123 26
0.35032615 -0.23418421 0.6697095 0.0066844411 116 24
-0.34281242 -0.20000453 0.59745228 0.0088955946 62 13
nan nan nan 0 85 18
-0.36082914 -0.21413684 0.63729012 0.0064778128 89 19
-0.35421416 -0.21203469 0.62956876 0.0048634293 128 27
-0.35505065 -0.21439525 0.63501668 0.0059895813 109 23
-0.35993484 -0.21926326 0.64780891 0.0077375993 76 16
-0.35818481 -0.22014058 0.64877182 0.0078139128 87 18
-0.35096735 -0.21764317 0.63982552 0.007289682 85 18
-0.39531225 -0.24736547 0.72544193 0.014432702 39 8
-0.39489216 -0.24936388 0.72957897 0.015592938 33 7
nan nan nan 0 51 10
nan nan nan 0 146 31
-0.3293584 -0.213852 0.62155455 0.0018045446 512 109
-0.32708722 -0.21439466 0.62186652 0.0018067051 483 103
-0.32131323 -0.21262972 0.61555296 0.0055522658 120 25
nan nan nan 0 95 20
nan nan nan 0 81 17
nan nan nan 0 172 36
nan nan nan 0 79 16
nan nan nan 0 32 6
-0.33246648 -0.23344259 0.66947448 0.011488115 53 11
-0.329815 -0.23396145 0.67018557 0.0037822907 177 37
nan nan nan 0 160 34
nan nan nan 0 230 49
-0.30785504 -0.22533295 0.64373249 0.0030829525 269 57
-0.30598319 -0.22636393 0.6462732 0.0030163736 231 49
-0.30713353 -0.22967727 0.65541452 0.0035014937 192 41
-0.3013292 -0.22780547 0.64985031 0.0031925549 229 49
-0.29770538 -0.22755893 0.64901787 0.0032135632 213 45
-0.29764891 -0.2300642 0.65612757 0.0031460749 217 46
-0.29924935 -0.23392142 0.66718847 0.0055825002 110 23
nan nan nan 0 68 14
nan nan nan 0 70 15
nan nan nan 0 115 24
nan nan nan 0 121 25
-0.29328886 -0.2430273 0.69493842 0.0080444058 77 16
-0.28899905 -0.24238327 0.69372767 0.0067297043 114 24
-0.27144179 -0.230459 0.66027904 0.0025267603 338 72
-0.26285768 -0.22595099 0.64810389 0.0015911401 600 128
-0.26460689 -0.23032372 0.66147214 0.0031122719 255 54
-0.26097172 -0.23006155 0.66160953 0.0025260602 310 66
-0.25299788 -0.22591829 0.65062791 0.0018118166 481 103
nan nan nan 0 178 38
nan nan nan 0 342 73
-0.23353696 -0.21696325 0.62781411 0.0027108598 293 62
nan nan nan 0 88 18
nan nan nan 0 200 42
-0.23128788 -0.22391778 0.65133411 0.0012823918 825 176
-0.23022369 -0.22605911 0.65875256 0.0015958103 655 140
-0.22281167 -0.22193924 0.64792973 0.0023063014 358 76
nan nan nan 0 187 40
nan nan nan 0 289 61
-0.17795269 -0.1852794 0.5439015 0.0022808746 345 73
-0.17149448 -0.18129066 0.53316981 0.0015228157 633 135
-0.16799773 -0.18035717 0.53139222 0.001353196 767 164
-0.16556345 -0.18055278 0.5329302 0.00137792 749 160
-0.16493152 -0.1827518 0.54038471 0.0014273586 695 149
-0.1620474 -0.18248631 0.54055053 0.0014243574 717 153
-0.15959744 -0.18270907 0.54214871 0.001453065 748 160
-0.15898649 -0.18508019 0.55012006 0.0014678437 705 151
-0.15607284 -0.184806 0.55022275 0.0014986919 686 147
