# .PCD v0.7 - Point Cloud Data file format
VERSION 0.7
FIELDS x y z noise intensity gray
SIZE 4 4 4 4 2 1
TYPE F F F F U U
COUNT 1 1 1 1 1 1
WIDTH 875
HEIGHT 1
VIEWPOINT 0 0 0 1 0 0 0
POINTS 875
DATA ascii
0.006652324 0.058945838 0.38776717 0.0041546137 165 37
0.0084483447 0.059012242 0.38820583 0.0042742128 166 37
0.010178044 0.058673128 0.38597718 0.0033380399 202 45
0.011886572 0.058330987 0.3837288 0.0028478191 251 56
0.01366613 0.058380872 0.38405952 0.0027915882 257 58
0.015389277 0.058205962 0.38291147 0.0022369805 348 78
0.017289376 0.058667477 0.38595021 0.0023701002 327 73
0.018968765 0.058363821 0.38395506 0.0021070186 380 85
0.020808686 0.058563776 0.38527268 0.0026118718 276 62
0.0225327 0.058431737 0.38440573 0.0029217261 259 58
0.024308989 0.058444604 0.38449162 0.0029535443 237 53
0.026122143 0.058538351 0.3851088 0.0028665683 250 56
0.027894307 0.058534153 0.3850807 0.0031532852 218 49
0.029698562 0.058593769 0.38547131 0.004061467 172 38
0.031628102 0.058879901 0.38735068 0.0039567365 163 36
0.03358097 0.059176575 0.3892979 0.0040087509 163 36
0.034951542 0.058469053 0.38463721 0.0032863556 227 51
0.036596142 0.058266114 0.38329405 0.0032590316 234 52
0.038600776 0.058628693 0.38566869 0.003510115 187 42
0.040485505 0.058785256 0.38668561 0.0034313819 197 44
0.042270306 0.058789648 0.38669869 0.0032112142 231 52
0.044245631 0.059047937 0.38837877 0.0036507875 217 49
0.046381898 0.059492592 0.39128098 0.0036113183 206 46
0.047461558 0.058599394 0.38538077 0.0033403621 207 46
0.048955634 0.058263849 0.3831445 0.0034557406 195 44
0.050956618 0.058533955 0.38488686 0.0035746628 185 41
0.053143919 0.058992706 0.38786465 0.00385932 173 39
0.054882538 0.058939748 0.38747281 0.0034739645 192 43
0.056131802 0.058381155 0.3837522 0.0034321614 202 45
0.057730988 0.058209535 0.38257027 0.0035548846 193 43
0.059232898 0.057952914 0.38082427 0.0035103136 194 43
0.060604323 0.057587091 0.37835506 0.0040649786 180 40
0.063698925 0.058833294 0.38646936 0.0037352962 183 41
0.06409961 0.05759123 0.37823161 0.0036284786 183 41
0.06450031 0.05641504 0.37042257 0.003588981 187 42
0.065675579 0.055959582 0.36734083 0.0036712876 180 40
0.06702958 0.05567551 0.36537749 0.003373883 201 45
0.068362489 0.055388302 0.36338648 0.0033543915 207 46
0.069873802 0.055255935 0.36240351 0.003573471 197 44
0.071436055 0.055169106 0.36171082 0.0034156572 202 45
0.072899342 0.055011563 0.36054567 0.0033913897 202 45
0.073946968 0.054554421 0.35740876 0.0035931366 206 46
0.074469112 0.053738073 0.35191193 0.0033563236 205 46
0.075353034 0.053212143 0.34831047 0.0032206699 218 49
0.076863401 0.053141367 0.34767938 0.0032036731 214 48
0.07853137 0.053180221 0.3477546 0.003160493 222 50
0.079883888 0.053008191 0.3464399 0.0033447167 223 50
0.0812466 0.052849572 0.34520206 0.0032276618 222 50
0.082573093 0.052673981 0.34384248 0.0034055817 232 52
0.083994985 0.052564755 0.34290472 0.0030088967 233 52
0.085460648 0.052486483 0.34215647 0.0030184626 234 52
0.086742491 0.052300226 0.34069213 0.0030603418 229 51
0.087394066 0.051747486 0.33683023 0.0030558673 250 56
0.088736072 0.051615819 0.33569852 0.0028140619 258 58
0.089938544 0.051408961 0.33406499 0.0031772084 251 56
0.090966485 0.051111095 0.33182806 0.0031753944 250 56
0.091958329 0.05080324 0.32951471 0.0027854699 261 59
0.092950813 0.050505895 0.32725769 0.0027538966 267 60
0.094301037 0.05040941 0.32628873 0.0026097086 286 64
0.095784225 0.050385945 0.32577699 0.002581933 287 64
0.097025692 0.050238062 0.32444528 0.002677738 275 62
0.098304205 0.05011363 0.32325009 0.0026433154 280 63
0.099851683 0.050128013 0.32293373 0.0026215587 319 72
0.10111109 0.049999513 0.32168004 0.0025024314 298 67
0.10162604 0.049512111 0.31810468 0.0023571104 327 73
0.10270046 0.049307492 0.31633416 0.0024280045 327 73
0.10408876 0.049257286 0.31553826 0.002340043 329 74
0.10548244 0.049211003 0.31474984 0.0026062676 321 72
0.10711197 0.049274515 0.31464463 0.0024088994 319 72
0.10856757 0.049257375 0.31400499 0.0022255331 358 80
0.10915435 0.048851844 0.31087506 0.0023141678 339 76
0.10952049 0.048359748 0.30718568 0.0024130063 332 75
0.11071941 0.048243523 0.30587223 0.0022475915 342 77
0.11227944 0.048285611 0.305545 0.0022166446 355 80
0.11395694 0.048376486 0.30550668 0.0024031482 349 78
0.11550269 0.048409838 0.30508572 0.002361628 356 80
0.11632544 0.048143122 0.30275965 0.0022794155 366 82
0.11714415 0.047881372 0.3004556 0.0020766272 398 89
0.11847713 0.047833651 0.29948345 0.0022326328 378 85
0.11993735 0.047837831 0.29882246 0.0022587751 367 82
0.12107015 0.047712881 0.29734373 0.0022655199 350 79
0.12226778 0.047616124 0.29603267 0.002247866 348 78
0.1234453 0.047513891 0.29468095 0.0021323089 381 86
0.12466881 0.047431514 0.29344791 0.0022127018 354 80
0.12596998 0.04738022 0.29240441 0.0022678196 343 77
0.12721901 0.047310695 0.29124817 0.0022354613 355 80
0.12735501 0.046833415 0.28759125 0.0021951809 360 81
0.12858227 0.046763532 0.28644878 0.0023644504 382 86
0.12965751 0.046640482 0.28499174 0.0021764454 375 84
0.13102475 0.046623997 0.28420001 0.002286307 355 80
0.13234276 0.046590529 0.28332174 0.0022837464 342 77
0.13365111 0.046554416 0.28244895 0.0023848321 323 73
0.13532847 0.046646237 0.2823768 0.0024861894 300 67
0.13631856 0.046501722 0.28090432 0.0024651848 308 69
0.13712221 0.046297219 0.27910793 0.0025200332 303 68
0.13737744 0.045913551 0.27627662 0.0027583255 299 67
0.13774732 0.045575526 0.2737698 0.0024406177 315 71
0.13945907 0.045683775 0.27399167 0.0025549284 289 65
0.14130551 0.045833591 0.2745094 0.0030859883 268 60
0.1423289 0.045716122 0.27347773 0.0026896079 274 61
0.14349453 0.045646165 0.27278569 0.0028191467 258 58
0.14412573 0.045409158 0.27115256 0.0031978013 238 53
-0.15153825 0.043554988 0.25487083 0.0032876881 210 47
-0.15320596 0.044409793 0.25939623 0.0036084666 187 42
-0.15336995 0.044839676 0.2614657 0.003514244 189 42
-0.15242825 0.044950943 0.26171377 0.0036832197 204 46
-0.15205249 0.045232516 0.26299387 0.003331414 204 46
-0.1513371 0.045417134 0.26375261 0.0035547139 202 45
-0.15148139 0.045865323 0.26608607 0.0035111089 189 42
-0.15129097 0.046219334 0.26791885 0.0032955504 211 47
-0.15060413 0.046426732 0.26895157 0.0034103037 217 49
-0.15058734 0.04684636 0.27126589 0.0034317018 194 43
-0.14931875 0.046880729 0.27140382 0.0034396853 216 48
-0.14746293 0.046729647 0.27052471 0.0033064112 223 50
-0.14727274 0.047108497 0.27277097 0.0036369851 218 49
-0.146658 0.04735747 0.27432382 0.0033540563 226 51
-0.14590126 0.047564931 0.27569515 0.0030731834 226 51
-0.14471845 0.04763614 0.276335 0.0030570996 241 54
-0.14342992 0.047673617 0.27683562 0.0027606529 263 59
-0.14272226 0.047906805 0.27852869 0.0027487674 258 58
-0.14188151 0.048099525 0.28004164 0.0031464542 255 57
-0.14048067 0.048104342 0.28051141 0.0027943195 281 63
-0.13884804 0.048029076 0.28055933 0.002656884 273 61
-0.13725309 0.047965437 0.28071555 0.002577424 286 64
-0.13622403 0.048100289 0.28207216 0.0024842347 304 68
-0.13610627 0.048563119 0.28539303 0.0025677055 284 64
-0.13588868 0.048999768 0.28860089 0.0025559058 296 66
-0.13509788 0.049236882 0.29066747 0.0026233997 295 66
-0.13307644 0.049025755 0.29010868 0.0025810278 293 66
-0.13107534 0.048817579 0.28957748 0.0026554922 304 68
-0.12961896 0.048809912 0.29024428 0.0027397543 313 70
-0.1284547 0.048913311 0.29158071 0.0024380637 311 70
-0.12789287 0.049251042 0.29432479 0.002387943 322 72
-0.12669438 0.049348537 0.29564035 0.0024975941 336 75
-0.12588844 0.049602959 0.29789895 0.0023728169 322 72
-0.12447143 0.049619753 0.2987293 0.002521235 319 72
-0.12304416 0.049632806 0.29953006 0.0024164617 319 72
-0.12174768 0.04969956 0.30064639 0.0023213038 345 77
-0.12022435 0.049674209 0.30119467 0.0026862461 312 70
-0.11896195 0.049757365 0.30238855 0.0024876848 311 70
-0.11781267 0.049890503 0.3038747 0.0026094678 317 71
-0.11700819 0.050174855 0.30627194 0.0023804277 322 72
-0.11574728 0.050268248 0.30749202 0.0024676495 333 75
-0.11427867 0.050272688 0.3081519 0.0024969419 321 72
-0.11287045 0.050304152 0.30896011 0.0024080512 320 72
-0.11167581 0.050432913 0.31034955 0.002485171 305 68
-0.11063445 0.050635293 0.31217736 0.0027222664 274 61
-0.10956088 0.050828256 0.31393278 0.0026460655 278 62
-0.10838093 0.050976515 0.31539696 0.0025753269 294 66
-0.10698507 0.051025964 0.31623286 0.0025953734 283 63
-0.10626395 0.051403213 0.31908575 0.0031735173 254 57
-0.10475016 0.051402375 0.3195765 0.0027204263 268 60
-0.1035035 0.051534526 0.32087654 0.0027051237 272 61
-0.10207704 0.05157974 0.32161841 0.0026425377 276 62
-0.10072335 0.051663648 0.32258448 0.0029749668 267 60
-0.099274419 0.051700529 0.32323992 0.0029184299 262 59
-0.097742088 0.051694449 0.32360938 0.0030911707 250 56
-0.096151918 0.051657096 0.32376543 0.0027988639 252 56
-0.095064364 0.051892918 0.32561821 0.003119482 240 54
-0.094571024 0.052466087 0.32957688 0.0031144696 249 56
-0.093882672 0.052948296 0.33295485 0.0028482846 249 56
-0.091043562 0.052213322 0.32866135 0.0030429699 236 53
-0.089476772 0.052195303 0.32886058 0.0028838485 248 56
-0.087669 0.05203364 0.32813877 0.0030840258 254 57
-0.087759569 0.053012956 0.33460203 0.0029198895 242 54
-0.086496048 0.053194948 0.33602473 0.0030855506 228 51
-0.085279472 0.053413052 0.33766356 0.0031507909 223 50
-0.084025823 0.053615674 0.33919293 0.003168599 213 48
-0.082208008 0.053459186 0.33843735 0.0035869768 217 49
-0.081078246 0.05375275 0.34051877 0.0033612873 208 47
-0.080028415 0.054112043 0.3430067 0.0034271483 202 45
-0.078567758 0.054202497 0.34378022 0.0031406397 224 50
-0.07703454 0.054245599 0.34424222 0.0034475562 194 43
-0.075606763 0.05436635 0.34518626 0.0034708448 210 47
-0.074062057 0.054406416 0.34560776 0.0033578651 203 45
-0.072269693 0.05426231 0.34484845 0.003598561 198 44
-0.070771381 0.054337453 0.34547243 0.0033316552 203 45
-0.069322012 0.05445452 0.34635377 0.0040049329 194 43
-0.068097882 0.054758251 0.34841406 0.003462198 194 43
-0.067165524 0.055316992 0.35208997 0.0037196237 194 43
-0.066211306 0.055885024 0.35581878 0.0034782188 198 44
-0.064711079 0.056009401 0.35671595 0.0041290135 189 42
-0.062547408 0.055551041 0.35389322 0.0034540161 198 44
-0.061168838 0.055784076 0.35546711 0.0038212361 197 44
-0.059738059 0.05598104 0.35680467 0.0038461664 191 43
-0.058611993 0.056482799 0.36007908 0.0036092892 184 41
-0.057229724 0.056759749 0.36191469 0.0041371975 181 40
-0.055810429 0.05701552 0.36360973 0.0037403631 178 40
-0.054798767 0.057716466 0.36813894 0.0039126235 168 37
-0.053020831 0.057629365 0.36763665 0.0039983788 161 36
-0.051794097 0.05815541 0.37104088 0.0037725538 175 39
-0.050074119 0.058144644 0.37101564 0.00374968 178 40
-0.048707474 0.05855792 0.37369171 0.0042397659 173 39
-0.047368184 0.059035584 0.37677491 0.0043504983 172 38
-0.04587429 0.059349578 0.37880981 0.0039057122 168 37
-0.04419294 0.059436314 0.37939054 0.0046096868 166 37
-0.042702299 0.059797246 0.38171816 0.0043559745 167 37
-0.040084615 0.058543153 0.37373263 0.0038023957 177 40
-0.038552128 0.058832534 0.37559715 0.0038644015 170 38
-0.037610214 0.060092729 0.38365728 0.0042502102 168 37
-0.03596203 0.060293101 0.38494876 0.0039684922 163 36
-0.034235902 0.060376819 0.3854934 0.0039660428 165 37
-0.032256499 0.059998576 0.38308635 0.0038627237 176 39
-0.030673597 0.060356759 0.38537958 0.0039548627 165 37
-0.030076537 0.062817976 0.40109944 0.0039931168 161 36
-0.028502811 0.063428022 0.40499815 0.0046366807 165 37
-0.027306559 0.065022387 0.41518065 0.0040047136 164 37
-0.025775371 0.065999292 0.42141974 0.0040366147 169 38
-0.024204766 0.067026205 0.4279772 0.0039642681 167 37
-0.022349296 0.067376472 0.43021339 0.0045285043 166 37
-0.020357456 0.067343786 0.43000385 0.0041665663 158 35
-0.018000625 0.065966472 0.4212082 0.0042659291 153 34
-0.015708175 0.064520776 0.41197568 0.004937164 149 33
-0.013500261 0.063072667 0.40272766 0.0049186656 134 30
-0.011429411 0.061905492 0.39527357 0.004827919 142 32
-0.0095332423 0.061421331 0.39218068 0.0043040477 145 32
-0.0076548154 0.06085179 0.38854274 0.0038588536 170 38
-0.0058521987 0.060721163 0.38770762 0.0034924934 188 42
-0.0040654182 0.060712278 0.38765004 0.0038020685 191 43
-0.0022825636 0.060794026 0.3881714 0.0035846075 194 43
-0.00049204385 0.060524464 0.38645005 0.0038009414 171 38
0.0012924786 0.060718175 0.38768694 0.0038287793 172 38
0.0030963572 0.06106887 0.38992655 0.0037541178 173 39
0.0049054935 0.061227676 0.39094117 0.0039847582 184 41
0.0066846693 0.061027654 0.38966501 0.0040811179 170 38
0.0084519153 0.060826469 0.38838169 0.0035703275 189 42
0.010233075 0.060778223 0.38807505 0.0036394969 184 41
0.011938008 0.06035893 0.38539922 0.003424292 190 42
0.013603404 0.059874181 0.38230559 0.0031245758 212 47
0.015459825 0.060244974 0.38467461 0.0033582577 221 49
0.017217092 0.060192846 0.384343 0.0029816602 232 52
0.019269226 0.061085191 0.39004186 0.0033845429 205 46
0.020921318 0.060665313 0.38736135 0.0036347483 192 43
0.023068411 0.061633978 0.39354652 0.0040482837 171 38
0.024996132 0.061918061 0.39535972 0.0041504558 170 38
0.027127132 0.062632896 0.39992252 0.0045245956 164 37
0.028711759 0.062075548 0.39636096 0.0044549252 157 35
0.030245183 0.061480757 0.39255917 0.0043628523 145 32
0.032058183 0.061489329 0.39260849 0.004416836 146 33
0.033946667 0.061634041 0.39352524 0.0041889809 156 35
0.035922885 0.061915293 0.39531186 0.0040144334 171 38
0.037325766 0.061228901 0.39091825 0.0037591851 174 39
0.038862389 0.060814988 0.38826206 0.0045200135 169 38
0.040571973 0.060696263 0.38748798 0.0044833166 169 38
0.042350501 0.060686339 0.3874056 0.004137537 185 41
0.044341069 0.060968772 0.38918626 0.0042712186 177 40
0.046432406 0.061362423 0.39167312 0.0037445496 179 40
0.047216773 0.060064021 0.38335633 0.0037887387 176 39
0.049152236 0.060270775 0.38464263 0.0039304602 177 40
0.050764151 0.0600802 0.38338894 0.0038127734 177 40
0.052512012 0.060057931 0.3832047 0.0037874589 173 39
0.053078119 0.058729537 0.37468272 0.0038660688 171 38
0.055252947 0.059208784 0.3776885 0.0037829734 174 39
0.056243069 0.058428016 0.37265149 0.0036524921 183 41
0.057112634 0.057572026 0.36713052 0.0040879142 190 42
0.059058812 0.057819344 0.3686398 0.0040031783 186 42
0.060029779 0.057124801 0.36413813 0.0034974883 191 43
0.061819017 0.057225559 0.36470002 0.0036437339 194 43
0.063374333 0.057110172 0.3638773 0.0037818889 199 44
0.064652234 0.056757212 0.36153412 0.0033693521 206 46
0.066305079 0.056742892 0.36134076 0.0035682754 205 46
0.067235008 0.056125805 0.35730198 0.0031871048 220 49
0.0693321 0.056489259 0.35949731 0.0032889203 204 46
0.070091985 0.055771686 0.35480493 0.0037671563 205 46
0.071680002 0.055730816 0.35440993 0.003345699 206 46
0.072652586 0.055223972 0.35104349 0.0033692727 200 45
0.073907748 0.054949388 0.34914556 0.0038307905 210 47
0.074931532 0.054518219 0.34624439 0.0031902338 219 49
0.076264955 0.054325677 0.34484994 0.0033907883 232 52
0.078088492 0.054483 0.34566543 0.0033806616 223 50
0.079602323 0.054422256 0.34508562 0.0029280558 244 55
0.080859765 0.054192066 0.34342054 0.0030430299 232 52
0.082117572 0.053971034 0.34180298 0.0030166383 234 52
0.082814083 0.05339646 0.33793709 0.0028661068 251 56
0.084219813 0.053292062 0.33703682 0.0031611025 242 54
0.085320272 0.053001836 0.33494979 0.0029958752 238 53
0.08654277 0.052796479 0.33338779 0.0028349208 255 57
0.08812426 0.052813515 0.33321691 0.0032366295 254 57
0.089407183 0.052654114 0.33191919 0.0031471562 252 56
0.090732075 0.052524459 0.33079565 0.0031567921 260 58
0.091896452 0.052307755 0.32911062 0.0028157099 267 60
0.092848554 0.051979374 0.32671079 0.0028525039 290 65
0.094264127 0.051916886 0.32596868 0.0026144183 284 64
0.095772557 0.051906705 0.32553914 0.0027643819 260 58
0.096669003 0.051570382 0.32304993 0.0027148903 290 65
0.098036788 0.051492009 0.32216269 0.0025488778 290 65
0.099422194 0.051425125 0.32133102 0.0023967118 317 71
0.10006782 0.050983343 0.31814343 0.0023838922 322 72
0.10117098 0.050784282 0.31645796 0.0024403778 313 70
0.10265128 0.050777562 0.31595477 0.0025337867 321 72
0.10381652 0.050617438 0.31448022 0.0022079379 356 80
0.10501689 0.050478704 0.31312302 0.0022882228 375 84
0.10678556 0.05061321 0.31344199 0.0023493918 351 79
0.10816795 0.050563443 0.31260028 0.00223876 354 80
0.10868363 0.050115377 0.30928263 0.0022017111 358 80
0.10930223 0.049726129 0.30631861 0.0022972797 342 77
0.1104495 0.049584497 0.30486768 0.0021553314 366 82
0.11192051 0.049590003 0.30430481 0.0024992209 351 79
0.11371116 0.04973517 0.30457929 0.0022013127 360 81
0.11508115 0.049695004 0.30370009 0.0022314368 393 88
0.11611385 0.04951201 0.30193424 0.0021206513 376 85
0.11687037 0.049217243 0.2994771 0.0021127481 384 86
0.11824951 0.049188696 0.29862931 0.0021958619 414 93
0.11963492 0.049163405 0.29778841 0.0022659695 384 86
0.12098503 0.049124394 0.29685292 0.0022212726 355 80
0.12212233 0.049000904 0.29539874 0.0021579587 371 83
0.12344951 0.048955604 0.29440975 0.0022304158 370 83
0.12438397 0.048757404 0.29249841 0.0021540916 372 84
0.12512697 0.048489526 0.2901721 0.0022219387 357 80
0.12608458 0.048309911 0.2883797 0.0021625387 369 83
0.12715796 0.048178174 0.28687984 0.0022721246 364 82
0.12813014 0.048011411 0.28518149 0.0023412569 353 79
0.12965399 0.048052751 0.28473049 0.0021969378 358 80
0.1309374 0.048005041 0.28376532 0.0021670694 369 83
0.1321861 0.047945764 0.28275087 0.002304062 364 82
0.13329855 0.047838848 0.28147972 0.0023226948 334 75
0.13456687 0.047789507 0.28057584 0.0023639775 324 73
0.13645665 0.047959626 0.28098983 0.0024691469 315 71
0.13741212 0.047801226 0.27951422 0.0024663429 305 68
0.13769118 0.047413126 0.27674097 0.0026875865 296 66
0.13823947 0.047124587 0.27459884 0.0029279704 292 66
0.13906293 0.046934649 0.27308217 0.0028300523 273 61
0.14026013 0.04687335 0.27236548 0.0029656005 281 63
0.14222169 0.047066197 0.27317661 0.0026814502 270 61
0.1434392 0.047011465 0.27260411 0.002834022 257 58
0.1464638 0.047544386 0.27549309 0.0030462921 240 54
-0.15248044 0.045114979 0.25659961 0.003801092 173 39
-0.15286534 0.045614518 0.25895521 0.0035539337 188 42
-0.15229274 0.045834485 0.25975487 0.0038160388 184 41
-0.15135548 0.045947559 0.25998628 0.003360077 197 44
-0.15185343 0.046502128 0.26275295 0.0042399871 178 40
-0.15064487 0.046539281 0.26263648 0.0034069039 198 44
-0.15049262 0.046906333 0.26442611 0.0035679592 185 41
-0.15033133 0.047277141 0.26628193 0.0035671254 210 47
-0.14942379 0.047417864 0.26689059 0.0032881885 209 47
-0.14855909 0.04757487 0.26764265 0.0033544176 202 45
-0.14770749 0.047739018 0.26848832 0.0031251719 219 49
-0.14801446 0.048284166 0.2715317 0.0033091225 225 50
-0.14752568 0.048577543 0.27321595 0.0030926033 223 50
-0.14631262 0.04863574 0.27363509 0.0029557508 234 52
-0.14568153 0.048890352 0.27521756 0.003459556 231 52
-0.14446892 0.048952863 0.27577662 0.002976001 233 52
-0.14346415 0.0490877 0.27680013 0.0030156586 254 57
-0.14250582 0.049241263 0.2779853 0.0029937399 258 58
-0.14183562 0.04949842 0.27981067 0.002865846 258 58
-0.14042513 0.049499813 0.280242 0.0028395031 254 57
-0.13863459 0.049365912 0.27995276 0.0027041065 275 62
-0.13719019 0.049353767 0.28039554 0.0026215217 303 68
-0.1364091 0.049582485 0.28224811 0.0025149456 296 66
-0.13588582 0.049910691 0.28470826 0.0025340458 295 66
-0.13524581 0.05020253 0.2869992 0.0024574513 308 69
-0.13402838 0.050283995 0.28811845 0.0026607329 322 72
-0.13268656 0.050320044 0.28900087 0.0026349789 299 67
-0.13138495 0.05037231 0.28999498 0.0023570536 335 75
-0.13080427 0.050705198 0.29262325 0.0024277163 312 70
-0.12930478 0.05068538 0.29322961 0.0025023685 304 68
-0.12723748 0.050440021 0.2925328 0.002542122 323 73
-0.1262677 0.050629102 0.29435673 0.0026372378 312 70
-0.12455033 0.050519336 0.29444307 0.0023795501 324 73
-0.12417258 0.050956741 0.29771915 0.0027073752 308 69
-0.12260416 0.050910108 0.29816622 0.0023278005 334 75
-0.12139622 0.051013838 0.29948583 0.0021949525 356 80
-0.12022698 0.051136553 0.30090931 0.0023975272 323 73
-0.11889449 0.051191997 0.30192694 0.0024687608 340 76
-0.11775196 0.051331632 0.30342999 0.0025342768 322 72
-0.11670204 0.051515669 0.3051846 0.0023660546 322 72
-0.1154841 0.05162929 0.30650994 0.0024649932 318 71
-0.1141537 0.051694922 0.30753574 0.0024807078 303 68
-0.11312075 0.051898755 0.3093695 0.0024116526 316 71
-0.11169339 0.051924627 0.31012717 0.0026570619 289 65
-0.11048546 0.052054599 0.31149 0.0027783227 287 64
-0.10926586 0.052182537 0.31282499 0.0028175141 292 66
-0.10814922 0.052363869 0.31446472 0.0024431916 315 71
-0.1070513 0.052559469 0.31617522 0.0025332521 291 65
-0.10554396 0.052556776 0.31667599 0.0027886778 272 61
-0.10448512 0.05278055 0.31852478 0.0027027309 275 62
-0.10299727 0.052791003 0.31906977 0.002952886 277 62
-0.10177974 0.052942373 0.32044953 0.003109976 263 59
-0.10049362 0.053062104 0.32162192 0.0031661843 255 57
-0.0990365 0.053093813 0.32224426 0.0029594076 249 56
-0.097821876 0.053258542 0.32365769 0.0028772538 253 57
-0.096388444 0.053307466 0.32435188 0.002954867 240 54
-0.095665105 0.053756986 0.32747006 0.0031461485 248 56
-0.094114661 0.053748813 0.32778654 0.0028418037 254 57
-0.09221942 0.053540193 0.32686284 0.0028383355 258 58
-0.091401823 0.053960741 0.32976571 0.002949646 243 54
-0.089167908 0.053545222 0.32754377 0.0030050776 239 54
-0.087751247 0.053614527 0.32827044 0.003040818 249 56
-0.087142877 0.054188915 0.33207852 0.0030236896 234 52
-0.086206555 0.054576464 0.33473226 0.0030803443 225 50
-0.084948361 0.054770771 0.33618984 0.0035162547 230 51
-0.083189249 0.05464334 0.33565909 0.0030682753 234 52
-0.081792258 0.054753441 0.33657423 0.0031080828 225 50
-0.080353417 0.054839272 0.33732826 0.0031188324 231 52
-0.07947892 0.05532134 0.34050944 0.0031199269 222 50
-0.078121528 0.055480026 0.34169057 0.0031142794 227 51
-0.076576941 0.05550959 0.34206551 0.0036458927 211 47
-0.075313963 0.055748861 0.34372234 0.0032704978 216 48
-0.073832288 0.05583309 0.34441337 0.0032584791 209 47
-0.072214819 0.055816092 0.3444697 0.0035872241 204 46
-0.070354417 0.055606294 0.34332547 0.0032489509 212 47
-0.068709195 0.055560827 0.34318545 0.0032584544 212 47
-0.067339532 0.055741295 0.34443206 0.0035444463 204 46
-0.066243567 0.056162555 0.347159 0.0036223272 214 48
-0.065466128 0.056881491 0.3517198 0.0037506854 203 45
-0.064264767 0.057259332 0.35416535 0.0036831568 194 43
-0.062564567 0.057200834 0.35390466 0.0038182121 200 45
-0.060568638 0.056861568 0.35189858 0.0033598447 201 45
-0.059164427 0.05707442 0.353302 0.0037774113 195 44
-0.058185827 0.057721552 0.35738796 0.0035872937 184 41
-0.056560796 0.057746463 0.35761577 0.0039622216 182 41
-0.055140845 0.057988524 0.35918254 0.0038048152 184 41
-0.053701118 0.058224164 0.36070397 0.0036274013 185 41
-0.051733647 0.057884384 0.35865498 0.003614146 182 41
-0.050598044 0.058483664 0.3624194 0.0038069421 173 39
-0.049533896 0.059209291 0.36696285 0.0035817153 187 42
-0.047751732 0.059097633 0.36631286 0.0036028852 184 41
-0.045885067 0.058869381 0.36493546 0.0038839241 167 37
-0.044836964 0.059713915 0.37020454 0.0040617203 179 40
-0.042877439 0.059363406 0.36806136 0.0040840171 178 40
-0.041291513 0.05952258 0.36907449 0.0041803299 176 39
-0.039644979 0.059604306 0.36960417 0.0041507659 181 40
-0.038120203 0.059884641 0.3713626 0.0037101991 181 40
-0.037016232 0.060883459 0.37757415 0.003794732 173 39
-0.034841388 0.060132593 0.37293237 0.0043162205 175 39
-0.033060271 0.060018592 0.37223786 0.0037748716 179 40
-0.031532455 0.060377136 0.37447193 0.0043529728 167 37
-0.029600283 0.059958126 0.37188169 0.0039890842 168 37
-0.027655141 0.059459742 0.36879733 0.0037431566 175 39
-0.026708733 0.061183989 0.37949747 0.004100583 170 38
nan nan nan 0 164 37
-0.02414686 0.063648187 0.39478946 0.0039664931 173 39
nan nan nan 0 172 38
-0.021883644 0.067913331 0.42124885 0.0045825243 165 37
-0.020127833 0.068542831 0.42515439 0.0039697881 172 38
-0.01812904 0.068391398 0.42421541 0.004029044 161 36
-0.015973279 0.067539677 0.41893232 0.0041283499 159 35
-0.013995485 0.067309745 0.41750583 0.0046831206 148 33
-0.012160048 0.067800291 0.42054787 0.0044966699 141 31
-0.010147038 0.067299038 0.41743818 0.0049709314 145 32
-0.0079187173 0.064801402 0.40194544 0.0044497498 149 33
-0.0061281007 0.065454267 0.4059943 0.0047332044 146 33
-0.0042405128 0.065189965 0.40435442 0.0043687755 148 33
-0.0023429093 0.064236887 0.39844251 0.0049693407 140 31
-0.00050337659 0.063739859 0.39535949 0.0043495204 143 32
0.0013057184 0.063144557 0.39166704 0.0043060221 148 33
0.0031083897 0.063109584 0.39145026 0.0045118905 156 35
0.0049089584 0.063073277 0.39122546 0.0042963112 146 33
0.00670637 0.063026801 0.39093769 0.004324297 143 32
0.008527643 0.063176781 0.39186847 0.0044328943 139 31
0.010335688 0.06319347 0.39197272 0.0047410796 141 31
0.012130041 0.06313394 0.39160398 0.0050809388 146 33
0.013811481 0.062578231 0.38815749 0.0044246241 144 32
0.015612156 0.062628224 0.38846782 0.0048538344 153 34
0.017621877 0.063420288 0.39338073 0.0042479853 153 34
0.019555273 0.063815556 0.39583191 0.0040352787 160 36
0.021417385 0.063930601 0.39654446 0.0046368418 154 34
0.023349956 0.064221375 0.39834619 0.0039658714 161 36
0.025474833 0.06496013 0.4029257 0.0043760408 166 37
0.027101653 0.064414762 0.39953914 0.0047724741 159 35
0.028595287 0.063642338 0.39474314 0.003977749 166 37
0.030079691 0.062942989 0.39039907 0.0039302302 164 37
0.031427685 0.062053215 0.3848725 0.0042774957 166 37
0.033661522 0.062914141 0.39020237 0.0043735644 172 38
0.034534167 0.061272655 0.38001019 0.0040641478 171 38
0.03637002 0.061416108 0.38088611 0.0037560172 172 38
0.038547155 0.062096115 0.38508695 0.003913993 172 38
0.040329337 0.062108055 0.38514176 0.00432591 181 40
0.041399781 0.061069086 0.37867716 0.0038128495 183 41
0.043492291 0.061560854 0.38170123 0.0037251904 183 41
0.044514548 0.060558386 0.37545723 0.0036084799 185 41
0.045957673 0.060182076 0.37309226 0.0036025047 184 41
0.048070971 0.060678855 0.37613577 0.0037477838 175 39
0.049596265 0.060424659 0.37451974 0.0039802562 173 39
0.050709378 0.059702296 0.36999789 0.0038626743 170 38
0.05210017 0.059343226 0.36772346 0.0036246087 185 41
0.054034114 0.059605971 0.36929694 0.0041655656 174 39
0.055425584 0.059272517 0.36717114 0.0036392675 180 40
0.0565827 0.058715664 0.36365652 0.0035982481 190 42
0.05815246 0.05860674 0.36291078 0.0034218815 195 44
0.059701763 0.05848388 0.36207259 0.0034585723 197 44
0.060800597 0.057938438 0.35861224 0.0034087545 198 44
0.062621504 0.058091767 0.35947046 0.0035195048 194 43
0.064393245 0.058192741 0.35999665 0.0034277767 198 44
0.065636881 0.057823397 0.35760593 0.0035253398 209 47
0.067242183 0.057782978 0.35724202 0.0034048997 212 47
0.067982338 0.057018861 0.35239697 0.0031970744 218 49
0.069209598 0.056689516 0.35023236 0.0031649128 226 51
0.070711352 0.056594927 0.34950987 0.0035058903 226 51
0.072187908 0.056484856 0.34868276 0.003243872 214 48
0.07333912 0.056130592 0.34633937 0.0033310745 226 51
0.074327819 0.055669766 0.34333068 0.0035950893 223 50
0.075695902 0.055506457 0.34214786 0.0031274112 223 50
0.077482365 0.055650339 0.34284779 0.0030129184 235 53
0.079185128 0.055729527 0.34313691 0.00283624 252 56
0.080526091 0.055555988 0.34185827 0.0030126832 237 53
0.08144962 0.055106729 0.33887327 0.0028946972 249 56
0.082615152 0.054835144 0.33697107 0.0032223228 241 54
0.083813071 0.054594759 0.33524996 0.0028841947 249 56
0.084915332 0.054301992 0.33319622 0.0029207538 244 55
0.086068742 0.054051861 0.33139297 0.0027364639 267 60
0.087626413 0.054059949 0.33116004 0.0029927073 244 55
0.089229129 0.05409506 0.33107787 0.0031484552 256 57
0.090621144 0.054003417 0.33020538 0.0026059351 280 63
0.091786653 0.053782117 0.32852656 0.0025170359 298 67
0.092858821 0.053514324 0.32655117 0.0025698855 303 68
0.094047882 0.053321481 0.32501993 0.0025035567 305 68
0.095630705 0.053354464 0.32485005 0.0025393965 294 66
0.096771725 0.053143799 0.32318118 0.0026187843 284 64
0.09795282 0.052961305 0.32166952 0.0024591926 309 69
0.099360704 0.05290512 0.32090944 0.0026066615 309 69
0.10012087 0.052510917 0.31808504 0.0024491644 331 74
0.10110428 0.052243706 0.31601766 0.0023320715 335 75
0.10231439 0.052099705 0.31468108 0.0024376404 344 77
0.10356427 0.051979799 0.31347415 0.0024533153 344 77
0.10453462 0.051724959 0.31143868 0.0025913247 335 75
0.10613061 0.051782496 0.31126741 0.0021397576 378 85
0.10784913 0.05189741 0.31142083 0.0023498328 375 84
0.10789725 0.051216308 0.30678493 0.002275595 345 77
0.10907564 0.051082764 0.30541947 0.0024350919 348 78
0.11034001 0.050992485 0.30429697 0.0021544807 366 82
0.11201376 0.05109128 0.30428475 0.0022800325 385 87
0.11373007 0.051206704 0.30435157 0.0022427505 357 80
0.11491179 0.051081553 0.30297154 0.0023707186 369 83
0.11586751 0.050860334 0.30100983 0.0021494117 370 83
0.11692771 0.050689891 0.29933825 0.0022937702 379 85
0.11796626 0.050514352 0.29762673 0.0020747834 396 89
0.11931388 0.050473798 0.29670042 0.0021301997 377 85
0.12050064 0.050366979 0.29537508 0.0020726265 392 88
0.12194362 0.050368514 0.29467684 0.0020696151 398 89
0.12335204 0.0503559 0.29388818 0.0020846494 386 87
0.12445261 0.050219361 0.29237294 0.0021484557 368 83
0.12467285 0.049734745 0.28883734 0.002147713 370 83
0.1257358 0.049593441 0.28730476 0.0023709603 368 83
0.12704791 0.04955247 0.28635937 0.0021912826 361 81
0.12822454 0.049460139 0.28512606 0.0021017974 380 85
0.12978722 0.049517114 0.28476459 0.002375656 347 78
0.13107604 0.049469497 0.2838164 0.0024630055 344 77
0.13196908 0.049275115 0.2820484 0.0025659939 342 77
0.13278413 0.049056035 0.28016776 0.0023389366 350 79
0.13413258 0.049036529 0.27945772 0.0022859783 341 77
0.13612567 0.049250659 0.2801089 0.0024541577 313 70
0.13794148 0.049396928 0.28040665 0.0024568462 306 69
0.13826579 0.049011521 0.27772933 0.0027385282 303 68
0.13875325 0.048691109 0.27547133 0.0029266132 274 61
0.13923715 0.048375826 0.27329516 0.0026569518 274 61
0.1395831 0.048019275 0.27094099 0.0027506303 262 59
0.14070342 0.047933478 0.27016968 0.0028106393 255 57
0.14316887 0.04830315 0.27201813 0.0030524649 242 54
0.14307517 0.047810599 0.26906678 0.003280015 233 52
-0.1536213 0.046751361 0.2586717 0.0040199086 160 36
-0.15379532 0.047203422 0.2606743 0.0037956627 169 38
-0.15282647 0.047309462 0.26079836 0.0042943489 173 39
-0.1518482 0.047414392 0.26095447 0.003366298 202 45
-0.15066561 0.047456812 0.26080722 0.0033377903 205 46
-0.15084703 0.047933407 0.2630862 0.0034416616 192 43
-0.15046722 0.048238564 0.26446518 0.0036098431 180 40
-0.14976731 0.048445668 0.26535189 0.0034429794 219 49
-0.14901055 0.048637968 0.26620576 0.0033337367 201 45
-0.148105 0.048784774 0.26686126 0.0039421478 194 43
-0.14777751 0.049126472 0.268635 0.0033308575 213 48
-0.14799204 0.049656395 0.2714918 0.0036616786 208 47
-0.14739807 0.049922455 0.2729618 0.003234291 218 49
-0.14601508 0.0499238 0.27304134 0.003681256 207 46
-0.14508288 0.050080784 0.27402943 0.0032602884 223 50
-0.14431305 0.050297402 0.27540174 0.0029247147 236 53
-0.1430189 0.050333716 0.27584368 0.0027924574 255 57
-0.14071302 0.050011173 0.2743718 0.0026339339 280 63
-0.14186323 0.05092277 0.27972719 0.0028292914 254 57
-0.14015068 0.050814793 0.27953795 0.0029463707 272 61
-0.13847423 0.050717838 0.27945492 0.0026992091 275 62
-0.13699687 0.050692551 0.27980965 0.0025925324 282 63
-0.13644496 0.05101274 0.28211442 0.002859216 281 63
-0.13609675 0.051416609 0.28492603 0.0026075491 282 63
-0.13482684 0.051477131 0.28587228 0.0026902328 296 66
-0.13365012 0.051574923 0.28705502 0.0023311873 329 74
-0.13344036 0.052052017 0.29037949 0.0027551311 301 68
-0.1322571 0.052155662 0.29164714 0.0024576704 310 70
-0.13103762 0.05224717 0.2928642 0.0027977841 298 67
-0.12959842 0.052252136 0.29360813 0.0024209151 315 71
-0.12780526 0.052112889 0.29354656 0.0027584063 311 70
-0.12596631 0.051951565 0.29335973 0.002373006 321 72
-0.12512918 0.052204456 0.29551306 0.0024815355 331 74
-0.12391316 0.052303359 0.29679668 0.0023225199 334 75
-0.12266259 0.052389849 0.2980068 0.0026586531 317 71
-0.12131935 0.052438363 0.29899481 0.0024715399 351 79
-0.12001055 0.052503135 0.30006716 0.0027118206 314 70
-0.11871927 0.052577242 0.30118293 0.0024324087 317 71
-0.11717859 0.052541371 0.30165613 0.0025291978 335 75
-0.11601423 0.052675463 0.30309197 0.0026283287 327 73
-0.11464221 0.052717492 0.30398473 0.0027149243 317 71
-0.11455678 0.053359896 0.30833143 0.0024087557 320 72
-0.1128706 0.05326375 0.30840001 0.0023981994 323 73
-0.11144896 0.053291533 0.30916771 0.0025943168 312 70
-0.11014665 0.053377897 0.31025851 0.0027335091 302 68
-0.10886645 0.053477488 0.31140992 0.0024430661 310 70
-0.10772636 0.053649597 0.31296802 0.0025503498 310 70
-0.10637712 0.053720929 0.31392214 0.0024913435 304 68
-0.10498497 0.0537723 0.3147423 0.0026686306 294 66
-0.10354713 0.053801425 0.31541443 0.0028782943 281 63
-0.10170759 0.053619631 0.31483033 0.0025573198 291 65
-0.10157749 0.054347027 0.3195712 0.0027498237 268 60
-0.10034104 0.054495517 0.32089737 0.0028310334 269 60
-0.098991208 0.054586031 0.32186627 0.0028474473 247 55
-0.097272567 0.05447283 0.32161623 0.0028284574 261 59
-0.09659338 0.054947339 0.3248215 0.003254435 241 54
-0.095568456 0.055237263 0.32692418 0.0029553804 250 56
-0.093719795 0.055052772 0.32620305 0.0031546166 238 53
-0.091812134 0.054826919 0.32521781 0.0028089362 256 57
-0.090310141 0.05483979 0.32563147 0.0030573329 255 57
-0.089038029 0.054995086 0.3268764 0.0032226499 234 52
-0.087605208 0.055054814 0.32753953 0.0034309218 238 53
-0.086103708 0.05507274 0.32793972 0.0029326016 243 54
-0.085865051 0.055913642 0.33323061 0.0029718606 237 53
-0.084585108 0.056094985 0.33458173 0.0030921551 220 49
-0.083028652 0.0560963 0.33484635 0.0034814917 220 49
-0.081180483 0.055896811 0.33389831 0.0030708339 238 53
-0.080147423 0.056261741 0.33630958 0.0030361298 233 52
-0.079321057 0.056789164 0.33968335 0.0033953357 223 50
-0.077876672 0.056886546 0.34047514 0.0033444916 221 49
-0.076012574 0.056675024 0.33940601 0.0034907213 214 48
-0.074420907 0.056661971 0.33951339 0.0030983046 226 51
-0.073499806 0.057169948 0.34273335 0.0034237534 219 49
-0.072106346 0.05732483 0.34382802 0.003244251 231 52
-0.07031545 0.057163604 0.34301659 0.0032105616 214 48
-0.068473533 0.056952499 0.34189513 0.0031314818 225 50
-0.067141443 0.057165477 0.34331012 0.0033191417 210 47
-0.065934867 0.057498239 0.34543684 0.0034470072 215 48
-0.064708523 0.057829849 0.34754935 0.0034309865 197 44
-0.063567564 0.058256593 0.35022688 0.0036416475 193 43
-0.062262289 0.058551129 0.35210288 0.0034213939 202 45
-0.060105402 0.058039114 0.34912071 0.0035970178 203 45
-0.058689997 0.058234606 0.35038659 0.0033948489 198 44
-0.057652697 0.05882699 0.35403463 0.0037422455 182 41
-0.056240145 0.059059866 0.35551369 0.0038913756 186 42
-0.05448753 0.058938906 0.35485655 0.0042062807 185 41
-0.05287458 0.058966205 0.35508603 0.0035724568 188 42
-0.051227633 0.058956116 0.35508481 0.0040613944 191 43
-0.049919821 0.059348546 0.35750285 0.0038791567 189 42
-0.048491683 0.059619863 0.35918695 0.0036456066 186 42
-0.046757396 0.059520636 0.358634 0.0038099061 180 40
-0.045216709 0.059669621 0.35957217 0.0037673125 173 39
-0.043677874 0.059832484 0.36059004 0.0038179776 186 42
-0.042214666 0.060115926 0.36233106 0.0038440302 182 41
-0.040687092 0.06032728 0.36363414 0.0035377918 191 43
-0.039273553 0.060733151 0.36610666 0.0036900174 188 42
-0.03731034 0.060287278 0.36344162 0.0038664946 184 41
-0.035716869 0.060425006 0.36429182 0.0043189344 181 40
-0.034105901 0.060545273 0.36503422 0.003721439 183 41
-0.032481883 0.060653638 0.36570254 0.0037237532 180 40
-0.031054657 0.061161436 0.36877719 0.0037028883 175 39
-0.028995175 0.060410738 0.36426157 0.0037627241 172 38
-0.027393984 0.060581297 0.36529905 0.003683365 182 41
-0.025857309 0.060926199 0.3673864 0.003954987 178 40
-0.024430502 0.061596423 0.37143412 0.0036781172 179 40
-0.023106787 0.062647127 0.37777513 0.0037684964 171 38
-0.021528466 0.063122481 0.38064572 0.0038594431 177 40
-0.020050704 0.06400314 0.38595954 0.0038750437 161 36
-0.018331278 0.064208716 0.3872017 0.0041029495 167 37
-0.01684433 0.065360703 0.39415047 0.0038565814 171 38
-0.015328209 0.066664174 0.40201217 0.0039316881 167 37
-0.013635907 0.067454398 0.40677842 0.0041654138 158 35
-0.012047316 0.069091216 0.4166497 0.0047014365 161 36
-0.010245117 0.069891244 0.42147455 0.0042582788 161 36
-0.0084204003 0.070875905 0.42741263 0.0048151398 158 35
-0.0062099155 0.068223491 0.41141748 0.0044614431 161 36
-0.0043020323 0.068025567 0.41022384 0.0047923196 159 35
-0.0023989233 0.067652144 0.40797195 0.0044272658 158 35
-0.00051379867 0.066918679 0.40354881 0.0044702473 161 36
0.001334016 0.066356525 0.40015876 0.0037218595 179 40
0.0031310781 0.065386787 0.3943108 0.0035987664 186 42
0.0049176239 0.064990155 0.39191899 0.0036576102 184 41
0.0067547853 0.065295845 0.3937625 0.0039508538 167 37
0.0086068716 0.065585837 0.39551112 0.0042139781 147 33
0.010449141 0.06571275 0.39627635 0.0042795888 149 33
0.01231945 0.065952033 0.39771888 0.0042699273 151 34
0.014174691 0.066059127 0.39836401 0.0044070878 152 34
0.01604341 0.066197284 0.39919609 0.0045702239 161 36
0.017835988 0.066025153 0.39815661 0.004206351 159 35
0.019505775 0.065472975 0.39482465 0.0044753612 167 37
0.0215178 0.066065766 0.39839649 0.004252898 167 37
0.02339939 0.066196382 0.39918041 0.0039110454 169 38
0.024960086 0.0654663 0.3947731 0.0042216452 171 38
0.026232427 0.064130455 0.38671187 0.0040376307 168 37
0.027802017 0.063644998 0.38377741 0.0038421419 171 38
0.029310117 0.063085243 0.38039359 0.0038004857 176 39
0.031239785 0.063444808 0.38255143 0.003836476 173 39
0.03244175 0.062367026 0.3760407 0.0037550698 177 40
0.034088317 0.062209904 0.37507924 0.0036357578 186 42
0.03598408 0.062500775 0.37681642 0.0043162587 181 40
0.037654299 0.062391143 0.37613645 0.0042101406 178 40
0.038669985 0.061254375 0.36926174 0.0038358669 194 43
0.040474217 0.06140985 0.37017453 0.0037890028 181 40
0.0415942 0.060556576 0.36500356 0.0036251552 194 43
0.043271672 0.060549732 0.3649314 0.0034631279 193 43
0.045218531 0.060906239 0.36704519 0.0037845648 182 41
0.047311794 0.06142712 0.37014487 0.0035765322 195 44
0.048680533 0.061003793 0.36755052 0.0035238462 189 42
0.050170027 0.060755171 0.36600471 0.0034909407 188 42
0.051412586 0.060233448 0.36280921 0.003955347 197 44
0.053238533 0.060406543 0.36379397 0.0036440303 184 41
0.054859065 0.06034312 0.36334857 0.0035606865 189 42
0.056001183 0.059772816 0.35984588 0.003325087 204 46
0.056980919 0.059067026 0.3555229 0.0033617553 206 46
0.058823675 0.059270333 0.35666588 0.003249265 214 48
0.060256898 0.059061158 0.35531989 0.0032448852 212 47
0.061908361 0.059071321 0.35528654 0.0033013944 204 46
0.063884057 0.059382338 0.35705462 0.0037592535 206 46
0.064846858 0.058759864 0.35320255 0.0032570946 215 48
0.066383936 0.058675569 0.35257852 0.0030671484 227 51
0.067159697 0.057938535 0.34802529 0.0031731627 218 49
0.068496086 0.057708316 0.34650972 0.0030599467 230 51
0.070166916 0.05776396 0.34670177 0.0032835021 230 51
0.071706176 0.057711236 0.34623367 0.0031242396 227 51
0.072773471 0.057289261 0.34354168 0.0031207332 224 50
0.074025452 0.057027627 0.34180284 0.0030516654 227 51
0.075382441 0.056856163 0.34059501 0.0031674223 233 52
0.07701984 0.056898892 0.34065968 0.0028512925 251 56
0.078620315 0.056913171 0.34054238 0.0031904264 246 55
0.079758681 0.056598958 0.33844864 0.0031406672 250 56
0.08096043 0.056341007 0.33668134 0.0029391588 242 54
0.08220996 0.05612547 0.3351568 0.0032013166 245 55
0.083528437 0.055964138 0.33394453 0.0028783104 260 58
0.084667198 0.055690493 0.33205083 0.0031221884 243 54
0.085810721 0.05542976 0.33022279 0.0027531614 262 59
0.087403178 0.055463094 0.33013374 0.0027861965 255 57
0.08881215 0.055380847 0.32934245 0.0025326435 297 67
0.090238214 0.055311885 0.32861608 0.0026769522 279 63
0.091354728 0.055058666 0.32678166 0.0025170455 301 68
0.091628842 0.054314446 0.32202348 0.0024394037 309 69
0.093205079 0.054353673 0.321899 0.0025210977 300 67
0.095088936 0.054568201 0.32279459 0.0025427565 294 66
0.096326061 0.05441067 0.32147232 0.0029064282 287 64
0.097879872 0.054434143 0.32120338 0.002443403 312 70
0.099086918 0.054266974 0.31979334 0.0026746879 303 68
0.10004339 0.053969644 0.31760237 0.0023346383 338 76
0.10090663 0.053631548 0.31515887 0.0025534383 326 73
0.10197423 0.053410321 0.313389 0.0023479557 337 76
0.10304403 0.053196579 0.31164888 0.0021556697 371 83
0.10459143 0.053231955 0.31135154 0.0022731775 366 82
0.10587703 0.053134959 0.3102622 0.0024430417 353 79
0.10645569 0.052690722 0.30713242 0.0022529606 350 79
0.10761973 0.052544344 0.30572671 0.0022797654 357 80
0.10877819 0.052399199 0.30431309 0.0021835794 365 82
0.11023323 0.052398872 0.30372429 0.0022186951 381 86
0.11198329 0.052536957 0.30391863 0.0021078016 383 86
0.11331709 0.052478712 0.30295914 0.0021910169 369 83
0.11449651 0.052351359 0.30158636 0.0022604221 378 85
0.11560574 0.052195508 0.300037 0.0020781888 389 87
0.11645509 0.051927645 0.29783425 0.0021206625 396 89
0.11785251 0.051907726 0.29704359 0.0020756288 392 88
0.11888568 0.051729802 0.29533893 0.0021393502 377 85
0.12037229 0.051751062 0.29476276 0.0020379084 402 90
0.12173422 0.051718857 0.29387328 0.0022301243 388 87
0.1231962 0.051729418 0.29322025 0.0021294104 375 84
0.12425638 0.05157296 0.29161814 0.002380471 370 83
0.12495265 0.051270757 0.28919658 0.0021087092 381 86
0.12595487 0.051099479 0.28752139 0.0020963787 392 88
0.12730698 0.051072393 0.28666499 0.0021392293 375 84
0.12868619 0.05105665 0.28588113 0.0022053486 356 80
0.1295829 0.050851911 0.28405407 0.0021956251 363 82
0.13064164 0.050714493 0.28262383 0.0025745977 336 75
0.13170002 0.050579853 0.28123298 0.0022571124 345 77
0.13282251 0.050472427 0.28002125 0.0026169869 323 73
0.13429999 0.050500736 0.27959254 0.0022891394 341 77
0.13601527 0.050616939 0.27968237 0.002282524 343 77
0.13726258 0.050558407 0.2788437 0.0024804964 304 68
0.13817647 0.050379496 0.277385 0.0025619727 294 66
0.13858117 0.050020382 0.27498397 0.0026072375 281 63
0.1390108 0.049677305 0.27272487 0.0026009653 280 63
0.13938913 0.049322814 0.27045837 0.0029260414 270 61
0.1406581 0.049287319 0.26999599 0.0029703768 258 58
0.14205433 0.049296677 0.26983345 0.0031387405 254 57
0.14199115 0.048804224 0.26698112 0.0030833886 225 50
-0.16431457 0.051394869 0.27684793 0.0045066834 139 31
-0.15790442 0.04981102 0.26779398 0.0045337505 135 30
-0.15362485 0.048877809 0.26230201 0.0040619061 160 36
-0.15568972 0.049964473 0.26768857 0.0038700786 169 38
-0.15124293 0.048962139 0.26192376 0.0036444212 185 41
-0.151967 0.049630854 0.26514485 0.0036739747 179 40
-0.15088901 0.049717691 0.26529762 0.0036184129 182 41
-0.14968921 0.049765605 0.26528949 0.0032973951 207 46
-0.14893013 0.049962234 0.26612228 0.0037759771 203 45
-0.1483501 0.050223075 0.26734641 0.00369024 200 45
-0.14766537 0.050452963 0.26845708 0.0035215453 193 43
-0.14687453 0.050650548 0.26944929 0.0031581975 229 51
-0.14689362 0.051133789 0.27201599 0.0033956836 225 50
-0.14581573 0.051240712 0.27263716 0.0030540582 234 52
-0.14439189 0.051226966 0.27267283 0.0030337512 234 52
-0.14391251 0.05155126 0.27456513 0.0029868095 234 52
-0.14237797 0.051500235 0.274515 0.0029943287 231 52
-0.14098924 0.05150146 0.27479765 0.0026876205 273 61
-0.14050373 0.051835939 0.27691317 0.0027857153 263 59
-0.14068246 0.052424673 0.28044409 0.0029770916 266 60
-0.13881333 0.052254513 0.27996659 0.0026224887 279 63
-0.13706422 0.05212649 0.27975723 0.0026693891 291 65
-0.13615003 0.052316632 0.2812973 0.002811475 307 69
-0.1359686 0.05279528 0.28443286 0.0024903028 302 68
-0.1352485 0.053072717 0.28652602 0.0027672923 289 65
-0.13460545 0.053386655 0.2888523 0.0028219596 292 66
-0.13382855 0.053653739 0.29095685 0.0023316334 329 74
-0.13196996 0.053488258 0.29073751 0.0025458965 309 69
-0.13053761 0.053493787 0.2914618 0.0026483941 298 67
-0.12950887 0.053666677 0.29311234 0.0024943694 304 68
-0.12799199 0.053638924 0.29367706 0.0024895479 308 69
-0.12644731 0.053598743 0.29417741 0.0024407404 307 69
-0.1251329 0.053656384 0.29521602 0.0022849885 341 77
-0.1240873 0.053831976 0.29690492 0.0023204049 329 74
-0.12271769 0.053869516 0.29783067 0.0026530877 314 70
-0.12136194 0.053914115 0.29878959 0.0025125626 337 76
-0.11979198 0.053863473 0.2992115 0.0024210659 317 71
-0.11842374 0.053903397 0.30012551 0.0023100844 338 76
-0.11704631 0.053940102 0.30101001 0.0024568292 307 69
-0.11564664 0.053967338 0.30182874 0.0025661036 322 72
-0.11440131 0.054068223 0.30304599 0.002528701 329 74
-0.11271428 0.053960253 0.30307683 0.0023866987 324 73
-0.11214811 0.054393083 0.30613232 0.0024317787 323 73
-0.11116937 0.054634653 0.3081018 0.0025102464 305 68
-0.1100646 0.054819953 0.30974105 0.0024412349 311 70
-0.10850382 0.0547801 0.3100917 0.0025789433 288 65
-0.10694648 0.054740895 0.31042701 0.0027465243 301 68
-0.10593151 0.0549821 0.31233615 0.002505102 300 67
-0.10452896 0.055026133 0.31310967 0.002764272 282 63
-0.1030957 0.055055041 0.31377947 0.0025327844 293 66
-0.10195425 0.055242922 0.31533906 0.0026880954 277 62
-0.099650577 0.054797281 0.31326213 0.0026135929 287 64
-0.10000172 0.055820085 0.31956682 0.0028206834 264 59
-0.098467946 0.055805974 0.3199257 0.0031716609 243 54
-0.097110771 0.055893049 0.32084775 0.0029562332 236 53
-0.095981896 0.056116357 0.32253703 0.0031857295 263 59
-0.09457352 0.056180812 0.32329831 0.0028980062 260 58
-0.093080215 0.05619609 0.32376063 0.0030206426 249 56
-0.091568716 0.056200702 0.32414538 0.0031591703 257 58
-0.090223975 0.056309562 0.32511628 0.0032815477 249 56
-0.088900976 0.056435943 0.32617435 0.0028654214 245 55
-0.087444387 0.056480456 0.32674518 0.0029651311 254 57
-0.085842021 0.056430712 0.32675594 0.0027488377 265 59
-0.084664308 0.05666339 0.32838872 0.0029178972 243 54
-0.084427714 0.057546116 0.33378035 0.0030198102 236 53
-0.082774594 0.057478335 0.33364901 0.0029275902 240 54
-0.081365786 0.057580858 0.33449316 0.0027270888 265 59
-0.080152996 0.057828803 0.33617067 0.0029010815 249 56
-0.079033166 0.058155019 0.33829299 0.0031398125 241 54
-0.077638425 0.058288082 0.33928132 0.0034784679 224 50
-0.07547868 0.057840422 0.33687651 0.0032072626 235 53
-0.074052885 0.057948157 0.33769405 0.0032895152 241 54
-0.073014341 0.058370128 0.34033364 0.0032359259 213 48
-0.071874097 0.058727637 0.34258908 0.0032815256 209 47
-0.070022516 0.058506947 0.34146187 0.0030646578 230 51
-0.068412587 0.058482636 0.34147021 0.0032231719 219 49
-0.067125887 0.05874002 0.34311461 0.0030861606 228 51
-0.065907605 0.059071194 0.34518227 0.0033608142 205 46
-0.064566843 0.059306312 0.34668121 0.0037703409 209 47
-0.062857963 0.059206676 0.34621516 0.0035509048 200 45
-0.061197054 0.059148204 0.34598148 0.0033673299 212 47
-0.059805997 0.059354391 0.34728864 0.0032389353 212 47
-0.058597323 0.059757952 0.34974423 0.0031891654 219 49
-0.057414368 0.06021136 0.35248592 0.0033547173 205 46
-0.055702843 0.060120743 0.3520366 0.0035097469 190 42
-0.054069016 0.060111042 0.35205463 0.0033903408 201 45
-0.052281402 0.05992448 0.35103056 0.0037373428 192 43
-0.050773893 0.060057309 0.35187164 0.0034925998 194 43
-0.049472306 0.060450528 0.3542335 0.0038217723 190 42
-0.047949824 0.060591482 0.35511255 0.003773629 199 44
-0.046440303 0.060759354 0.35614479 0.0036291152 182 41
-0.044968277 0.060990401 0.35754311 0.0036361555 182 41
-0.043399271 0.061102476 0.35823998 0.0035610984 189 42
-0.041845951 0.061246388 0.35911971 0.0036549326 182 41
-0.040466044 0.061666429 0.36161503 0.0035164813 187 42
-0.038810488 0.061684437 0.36174962 0.0036590623 180 40
-0.036980502 0.061414387 0.36019152 0.0036286097 181 40
-0.035321917 0.061416984 0.36022949 0.0035202077 194 43
-0.033771317 0.06161686 0.36142194 0.0038899733 190 42
-0.032263089 0.061918799 0.36321059 0.0034699435 191 43
-0.030561455 0.061862271 0.36289433 0.0041495054 187 42
