# .PCD v0.7 - Point Cloud Data file format
VERSION 0.7
FIELDS x y z noise intensity gray
SIZE 4 4 4 4 2 1
TYPE F F F F U U
COUNT 1 1 1 1 1 1
WIDTH 877
HEIGHT 1
VIEWPOINT 0 0 0 1 0 0 0
POINTS 877
DATA ascii
0.10688494 0.052903183 0.30837086 0.0019961291 414 94
0.10794464 0.052702982 0.30664971 0.002053045 415 94
0.10773701 0.05189766 0.30140036 0.0019328381 437 99
0.11035557 0.052457027 0.30406138 0.0019883027 451 102
0.11138228 0.052254986 0.30228749 0.0018771642 459 104
0.11235479 0.052033059 0.3003864 0.0020756843 417 94
0.11394012 0.052096959 0.30012077 0.0020756815 443 100
0.11514442 0.051987231 0.29883975 0.0018845 454 103
0.11640934 0.051907245 0.29771724 0.0018700137 464 105
0.11779083 0.051880557 0.29688811 0.0018953765 452 102
0.11901376 0.051785529 0.29565707 0.0019456724 429 97
0.11989947 0.051547784 0.29360497 0.0018409009 473 107
0.12126691 0.051520322 0.29274517 0.0020235151 457 103
0.12223256 0.051324792 0.29092669 0.0018934205 449 101
0.12368542 0.051335979 0.29027814 0.0021336472 436 99
0.12499525 0.051288236 0.28929517 0.0019005393 449 101
0.12594526 0.051095583 0.28749946 0.0018784972 459 104
0.12724057 0.051045753 0.28651547 0.0020022029 409 92
0.1284643 0.050968613 0.28538817 0.0019708246 427 96
0.12948337 0.050812855 0.28383592 0.0019900408 415 94
0.13077505 0.050766282 0.2829124 0.002245316 404 91
0.13209809 0.050732736 0.28208306 0.0020702821 392 89
0.13331644 0.050660118 0.28106257 0.002306344 387 87
0.13383372 0.050325397 0.27862182 0.0020368428 404 91
0.13614497 0.050665207 0.27994907 0.0020784412 386 87
0.13843535 0.050990377 0.28122613 0.002248232 349 79
0.13767302 0.050195936 0.27637434 0.0022884852 343 77
0.13823557 0.049895637 0.27429819 0.0023583903 336 76
0.13911514 0.049714595 0.27292958 0.0023401736 329 74
0.13974316 0.049448092 0.27114534 0.0026550055 317 71
0.14076965 0.049326405 0.27021009 0.0026829003 305 69
0.14229718 0.049380947 0.27029473 0.0028594753 286 64
0.14305662 0.049170442 0.2689845 0.0027803497 260 59
-0.15596527 0.048783347 0.26278049 0.0039759683 167 37
-0.15361243 0.048457112 0.26051509 0.0040251985 159 36
-0.15303412 0.048689861 0.26129338 0.0039612888 171 38
-0.15222381 0.048852183 0.26172939 0.0035672961 187 42
-0.1516819 0.049104251 0.26268399 0.0031623042 222 50
-0.15121013 0.049383666 0.26382428 0.0032125546 211 47
-0.1495845 0.049287856 0.263004 0.0031193574 220 49
-0.14824007 0.049283829 0.26272121 0.0029084617 242 54
-0.14815047 0.049700674 0.26472908 0.0033602996 239 54
-0.14765087 0.049986355 0.26608628 0.0033193091 227 51
-0.14686044 0.050177943 0.26699373 0.0031060411 221 50
-0.14581956 0.050286733 0.26751387 0.002837365 265 60
-0.14662746 0.051041137 0.27152312 0.0028913417 265 60
-0.14540169 0.051095217 0.27186301 0.0027852689 263 59
-0.14381759 0.051023215 0.2715883 0.002721485 268 60
-0.14335608 0.051351942 0.27350357 0.0027132663 266 60
-0.14215112 0.051418178 0.27407759 0.0026610091 276 62
-0.14064926 0.051377274 0.27413499 0.0024730337 300 68
-0.13975546 0.05155988 0.27543843 0.0025009925 297 67
-0.13915426 0.051855199 0.27739769 0.0026494502 317 71
-0.1384443 0.052115597 0.27922231 0.002371144 330 74
-0.13756151 0.052315615 0.28077224 0.0024667908 331 75
-0.13676761 0.052553937 0.28257325 0.0025449654 352 79
-0.13593039 0.052780446 0.28435293 0.002259589 350 79
-0.13494238 0.052952591 0.2858775 0.0024166682 339 76
-0.13318841 0.052824635 0.28581145 0.002596389 341 77
-0.13194594 0.052898977 0.28686386 0.0021165889 380 86
-0.13047452 0.05288215 0.28744298 0.0022595092 362 82
-0.12924717 0.052964967 0.28858051 0.0023430286 351 79
-0.12820955 0.053128261 0.29017165 0.0022283823 351 79
-0.1275568 0.053456549 0.29267853 0.0022294151 360 81
-0.12684824 0.053768691 0.29511017 0.0022479184 347 78
-0.12528412 0.053721223 0.29557276 0.0020464968 406 92
-0.1240323 0.053808112 0.29677331 0.0021099795 390 88
-0.12257462 0.053806715 0.29748344 0.0023421699 364 82
-0.12133613 0.053902648 0.29872605 0.0022662194 399 90
-0.12035092 0.054114796 0.30060759 0.0021666023 369 83
-0.1189069 0.054123323 0.30135003 0.0020973512 386 87
-0.11704497 0.053939484 0.30100656 0.0021972253 364 82
-0.11495894 0.053646419 0.3000339 0.0022057721 387 87
-0.11491653 0.054311723 0.30441076 0.0022676326 375 85
-0.11310058 0.054145187 0.30411553 0.0021299105 376 85
-0.11165149 0.054152213 0.30477667 0.0022590035 376 85
-0.11022715 0.054171599 0.30549052 0.0022713102 358 81
-0.10904003 0.054309644 0.30685773 0.0021912563 361 81
-0.10808927 0.054570805 0.30890694 0.0023120064 335 76
-0.10700835 0.054772567 0.3106066 0.0023766763 351 79
-0.10566813 0.0548454 0.31155959 0.0022705481 344 78
-0.10466884 0.05509977 0.31352869 0.0025204797 333 75
-0.1034104 0.055223104 0.31473729 0.0022831876 346 78
-0.1023015 0.055431075 0.3164131 0.0024210208 322 73
-0.10042737 0.055224437 0.31570408 0.0023384844 335 76
-0.098936759 0.055225637 0.3161636 0.0026542945 303 68
-0.097933382 0.055503011 0.31818888 0.0028352307 280 63
-0.096507303 0.055545717 0.31885397 0.0026431915 284 64
-0.095353864 0.055749174 0.32042658 0.0027749625 300 68
-0.093768619 0.055702668 0.32054678 0.0027627505 288 65
-0.092466824 0.055825759 0.32162705 0.0025839941 291 66
-0.091322817 0.056049779 0.32327488 0.0028219 298 67
-0.090369642 0.056400474 0.32564119 0.0029046675 290 65
-0.089001134 0.056499526 0.32654181 0.0025775726 286 64
-0.087549157 0.05654813 0.32713667 0.0026824451 291 66
-0.086129852 0.056619927 0.32785156 0.0024420063 310 70
-0.08528626 0.057079647 0.3308011 0.0026599769 278 63
-0.083632745 0.057004265 0.33063748 0.002723709 270 61
-0.082334727 0.057172894 0.33187601 0.0026439091 283 64
-0.080871291 0.057230912 0.33246028 0.0024578189 307 69
-0.07889773 0.056923155 0.33090597 0.0026522132 276 62
-0.077795886 0.057244588 0.3329969 0.0028284979 275 62
-0.076710321 0.057591297 0.33522549 0.0032409176 258 58
-0.075133048 0.057575557 0.33533388 0.0028847498 265 60
-0.073673286 0.057651114 0.33596301 0.0029910698 282 64
-0.072693005 0.05811324 0.33883581 0.0028786729 249 56
-0.071602054 0.058505353 0.34129238 0.002890511 251 56
-0.070103861 0.058574915 0.34185854 0.0027436793 266 60
-0.068910845 0.058908571 0.34395716 0.0027828943 262 59
-0.067073338 0.058694035 0.34284601 0.0027644448 266 60
-0.065630116 0.05882249 0.34372896 0.0029597892 240 54
-0.06398952 0.058776025 0.34358135 0.0034374327 237 53
-0.062985949 0.059327234 0.34692013 0.003238996 239 54
-0.061176263 0.059128109 0.34586391 0.0029780241 244 55
-0.059781928 0.059330504 0.34714887 0.0029423006 238 54
-0.058408868 0.059565764 0.3486194 0.0028681045 247 56
-0.057215031 0.060002312 0.35126215 0.0030969717 223 50
-0.055640575 0.060053535 0.35164306 0.0031196726 217 49
-0.054173473 0.060227174 0.35273474 0.0029857371 233 52
-0.052790467 0.060507964 0.35444853 0.0035355017 216 49
-0.051046833 0.060380153 0.35376316 0.0031053785 226 51
-0.049314052 0.060257152 0.35310033 0.003442931 221 50
-0.047591273 0.060138401 0.35245717 0.0036645951 217 49
-0.046299115 0.060574636 0.35506204 0.0032659953 220 49
-0.04486132 0.060845334 0.3566927 0.0032026845 218 49
-0.043364566 0.061053615 0.35795355 0.0032600404 210 47
-0.041807808 0.06119056 0.35879236 0.00319353 214 48
-0.040266708 0.061362661 0.35983372 0.0031990081 216 49
-0.038530786 0.061239887 0.35914251 0.0033099356 205 46
-0.036865838 0.061223961 0.35907468 0.003354321 208 47
-0.035371806 0.061503731 0.36073831 0.0031475509 225 51
-0.033727903 0.061537646 0.36095729 0.0036834024 219 49
-0.032056335 0.061522 0.360883 0.0031318013 224 50
-0.030384146 0.061503362 0.36078891 0.0038619312 223 50
-0.028667843 0.061388113 0.36012611 0.0030461757 231 52
-0.027351215 0.06216713 0.36470762 0.0033085309 222 50
-0.025872128 0.062654719 0.36757788 0.0034255506 198 44
-0.023917522 0.061978377 0.36361822 0.0032493772 208 47
-0.022344982 0.062264781 0.36530545 0.0036702657 206 46
-0.021102341 0.063592002 0.37309816 0.0033135656 206 46
-0.019455196 0.063827544 0.37448499 0.0033047863 207 47
-0.017686838 0.063672557 0.37357965 0.003888766 203 46
-0.015947005 0.063597925 0.37314492 0.0037669395 205 46
-0.014288398 0.063868321 0.37473398 0.0037333786 203 46
nan nan nan 0 179 40
nan nan nan 0 187 42
nan nan nan 0 187 42
-0.0080255438 0.069429047 0.40736631 0.0036515021 186 42
-0.0060494049 0.068306454 0.40078035 0.0039214441 183 41
-0.0041772486 0.067887485 0.39832252 0.0042162905 187 42
-0.0023627183 0.068482243 0.40181246 0.004146215 187 42
-0.00052099169 0.06974066 0.4091962 0.0033536337 205 46
0.0013611356 0.069586486 0.40829152 0.0033891939 210 47
0.0032489465 0.069733195 0.40915218 0.003376021 211 47
0.0050263219 0.068272129 0.40057915 0.0032499768 213 48
0.0068916748 0.068469889 0.40173897 0.0035053256 196 44
0.008876767 0.069521703 0.4079096 0.0034686844 196 44
nan nan nan 0 198 44
0.013806432 0.075965986 0.44571787 0.0034548913 207 47
0.015541424 0.074440785 0.43676695 0.0038512445 206 46
0.017306766 0.073393948 0.43062231 0.0034353903 196 44
0.01810311 0.068875752 0.40410984 0.0035759092 191 43
0.019903984 0.068665691 0.40287355 0.0040247929 188 42
0.021648925 0.068314962 0.40081111 0.0034992492 199 45
nan nan nan 0 198 44
nan nan nan 0 207 47
0.025601627 0.064327143 0.3773945 0.0037392357 211 47
0.027001405 0.063529454 0.37270552 0.0033209331 210 47
0.028557088 0.063172057 0.37059799 0.0031498147 223 50
0.030004213 0.062628381 0.36739618 0.003495574 219 49
0.031741418 0.06271594 0.36789548 0.0034455738 211 47
0.033290252 0.062441293 0.3662678 0.0034794461 218 49
0.034728654 0.06199602 0.36363718 0.0031369897 219 49
0.036575146 0.062286705 0.36532071 0.0034537383 208 47
0.038249701 0.062271886 0.36520946 0.0031738274 215 48
0.040019564 0.062406939 0.36597404 0.0034051689 216 49
0.041337617 0.061855011 0.36270678 0.0033411582 212 48
0.042933095 0.061744973 0.36202738 0.003241716 235 53
0.044426158 0.061501391 0.3605614 0.0032371841 230 52
0.045929372 0.061288942 0.35927397 0.003375543 226 51
0.047246866 0.060852069 0.35666719 0.0030510046 229 51
0.049149223 0.061172534 0.35849461 0.0035702821 232 52
0.051200543 0.061651509 0.3612453 0.0034497145 215 48
0.051934153 0.060563624 0.35481039 0.003019471 235 53
0.053530458 0.060517527 0.35447428 0.0030716721 228 51
0.055275347 0.060637161 0.35510296 0.0032418873 235 53
0.056597367 0.060299378 0.35304704 0.0032203244 242 54
0.058100622 0.060168177 0.35219461 0.0028196243 259 58
0.059547156 0.059986994 0.35104322 0.0030589725 261 59
0.060873758 0.059697799 0.34925342 0.002979622 258 58
0.062823929 0.060019277 0.35102862 0.0027392851 264 59
0.064184479 0.059775442 0.34948948 0.002829347 258 58
0.065137565 0.059173424 0.34584969 0.0026971775 276 62
0.066399522 0.058874138 0.34397244 0.0026228675 283 64
0.067677073 0.058602355 0.34224847 0.0029866777 269 61
0.069185682 0.058538515 0.34173042 0.0025981369 286 64
0.070806131 0.058570046 0.34175959 0.0030124232 274 62
0.071970306 0.058231011 0.33961746 0.003011853 271 61
0.073421516 0.05813377 0.33887643 0.0026766323 271 61
0.075054698 0.058181655 0.33897084 0.0030142786 268 60
0.076132715 0.057806056 0.33658797 0.0025578269 290 65
0.077595703 0.057731993 0.335951 0.0028808962 292 66
0.079130918 0.057713524 0.33562598 0.0026944631 292 66
0.080228664 0.05738287 0.3334747 0.0028332553 280 63
0.081245601 0.057008058 0.33105701 0.0025761973 294 66
0.083222046 0.057307933 0.3325448 0.0024779246 304 69
0.084347472 0.057021525 0.3306171 0.0023843695 321 72
0.085175566 0.056548014 0.3275944 0.0025174548 301 68
0.086156987 0.056191187 0.32523778 0.0024305475 315 71
0.087705389 0.056210093 0.32504338 0.002259379 345 78
0.089355372 0.056292366 0.32519996 0.0022129926 360 81
0.090982497 0.056357704 0.32524261 0.0023069906 352 79
0.092032157 0.056069095 0.32322848 0.002226925 358 81
0.093052551 0.055772293 0.32115483 0.0021758974 365 82
0.094447806 0.055706047 0.32039493 0.0021160124 379 86
0.096022725 0.055746198 0.32023057 0.0023074772 339 76
0.097307138 0.05561905 0.31908885 0.0023487005 369 83
0.098525912 0.055458818 0.31774226 0.0021810688 364 82
0.099097461 0.054944541 0.31435511 0.0020652709 397 90
0.10016051 0.054713942 0.31257939 0.0020746118 393 89
0.10138082 0.054574709 0.31131101 0.0021997546 410 93
0.10235046 0.054306466 0.30929229 0.0019957977 418 94
0.10352912 0.054155137 0.30792531 0.0019824326 417 94
0.10516369 0.054243185 0.30790201 0.0019275413 443 100
0.10638998 0.054121133 0.30666825 0.0019612561 426 96
0.10724881 0.05381798 0.30439469 0.0018763652 457 103
0.10873141 0.053831782 0.3038989 0.0019937088 419 95
0.11005607 0.05376805 0.30294842 0.0020790633 425 96
0.11100297 0.053523824 0.30096725 0.0019617858 438 99
0.11214467 0.053378604 0.29953054 0.0020108374 437 99
0.11341633 0.053298153 0.29844382 0.0019062901 444 100
0.11485073 0.05329524 0.29777706 0.0018381056 470 106
0.11627569 0.053288061 0.29707241 0.0018328673 476 108
0.11775957 0.053307742 0.2965042 0.001860282 464 105
0.11912659 0.053274669 0.29563114 0.0021242688 439 99
0.12022998 0.053125914 0.29410848 0.0020937833 428 97
0.12110964 0.052882969 0.29206145 0.0018792287 451 102
0.12240579 0.05282544 0.29103661 0.0019596936 429 97
0.12352489 0.052693699 0.28960216 0.0018774378 456 103
0.12494935 0.052693751 0.28889325 0.0020560997 440 99
0.12637177 0.052692939 0.28818229 0.0019287582 434 98
0.12738647 0.052524041 0.28656021 0.0020347734 422 95
0.12820588 0.052279234 0.28453913 0.0021800755 407 92
0.12926954 0.052138276 0.28310183 0.0020698488 393 89
0.13051607 0.052073322 0.28209752 0.0021160769 395 89
0.13172582 0.051995233 0.28104562 0.0021399134 375 85
0.13260676 0.051790375 0.27933797 0.002126314 406 92
0.13308038 0.051432375 0.27684113 0.0020604136 394 89
0.13507409 0.051663179 0.27754951 0.0022611755 373 84
0.1373968 0.052013814 0.27893457 0.0021570118 368 83
0.13751264 0.051530357 0.27589023 0.0024380714 344 78
0.13817485 0.051259294 0.27403516 0.0023659908 353 80
0.13875052 0.050961822 0.27209178 0.0022442485 346 78
0.1391716 0.050613984 0.26993445 0.0022610079 349 79
0.14039031 0.050560161 0.26940003 0.0024245726 312 70
0.14165786 0.050524812 0.26901856 0.0026219841 282 64
0.14294994 0.050498795 0.26874208 0.0030390453 261 59
-0.15059304 0.04837624 0.25389266 0.0034699636 191 43
-0.15244587 0.049389008 0.25869372 0.003678828 178 40
-0.15267023 0.049887083 0.26081982 0.0041398937 180 40
-0.15255931 0.050283279 0.26244342 0.0041412264 178 40
-0.15214002 0.050583888 0.2636027 0.0036418564 184 41
-0.15063606 0.050525993 0.26293445 0.0035343689 191 43
-0.14944659 0.050573476 0.26285911 0.0035388994 193 43
-0.14861496 0.050744008 0.26346838 0.0034411196 237 53
-0.14833407 0.051107377 0.26512435 0.002935301 244 55
-0.14729029 0.051212151 0.26548687 0.0032808683 245 55
-0.14581303 0.051166747 0.26512215 0.002825964 256 58
-0.14582387 0.051647551 0.2675361 0.002866463 262 59
-0.146323 0.052311972 0.27095437 0.0028970942 245 55
-0.14538574 0.052470613 0.27180821 0.003093885 262 59
-0.14420967 0.052545276 0.27228326 0.0026914447 268 60
-0.1433896 0.052752357 0.27350101 0.0027107263 274 62
-0.14177188 0.052667171 0.27325931 0.0024409948 308 69
-0.1408077 0.052825481 0.27433568 0.002427499 315 71
-0.14018841 0.053117633 0.27616248 0.0024293642 316 71
-0.13928138 0.053305537 0.27750134 0.0028118046 304 69
-0.13871238 0.053627964 0.27959287 0.0025066345 316 71
-0.13805072 0.053920824 0.28158101 0.0024009277 324 73
-0.13673548 0.053961836 0.28229937 0.0023286319 327 74
-0.13566957 0.054103144 0.28358293 0.0026229224 327 74
-0.13474062 0.054302629 0.28520969 0.0022213953 355 80
-0.13348216 0.054372184 0.28618744 0.0022427402 372 84
-0.13169235 0.054224458 0.28604677 0.0025135309 360 81
-0.13020092 0.054197703 0.28656384 0.002503908 346 78
-0.12892883 0.054262675 0.28758392 0.0021833337 397 90
-0.12801175 0.054480176 0.28942937 0.0022306889 369 83
-0.12717767 0.054738335 0.29150629 0.0020698945 389 88
-0.12640151 0.055027634 0.293762 0.002003409 410 93
-0.12532508 0.05519139 0.29535589 0.0022971223 376 85
-0.12391213 0.055209059 0.29616973 0.0023693305 368 83
-0.1224103 0.055187069 0.29676726 0.0021900183 389 88
-0.12095481 0.055185694 0.29746944 0.002268679 384 87
-0.11982537 0.05533487 0.29897678 0.0021651313 385 87
-0.11836768 0.055334251 0.29966664 0.0024015182 387 87
-0.11667293 0.055221424 0.29973564 0.0022170567 370 84
-0.11551231 0.05536174 0.30116594 0.0021653699 371 84
-0.11436731 0.055513222 0.30264607 0.0021491279 370 84
-0.11356908 0.055839121 0.30506733 0.0021697856 364 82
-0.11189643 0.055738006 0.3051421 0.0021574192 369 83
-0.1102833 0.055664241 0.30534789 0.0020657883 395 89
-0.1089401 0.055726562 0.30628285 0.0022745749 346 78
-0.10767382 0.055830475 0.30743045 0.0021842788 360 81
-0.10662045 0.056049198 0.30919579 0.0022734981 339 76
-0.10547215 0.056223437 0.31070152 0.0022864759 347 78
-0.10418294 0.056326468 0.31179824 0.0025643741 333 75
-0.10346352 0.056744955 0.31462783 0.0023791736 331 75
-0.10189451 0.056702934 0.31488934 0.0026961083 325 73
-0.10031554 0.05665404 0.31509385 0.0026851313 326 74
-0.098816015 0.056649204 0.31552523 0.0024886397 299 67
-0.09730754 0.056639016 0.31590912 0.0026594535 306 69
-0.096036285 0.056768734 0.31705701 0.0024744249 306 69
-0.094956361 0.057017438 0.31885517 0.0026997274 308 69
-0.09361472 0.057114452 0.31979081 0.0024690693 316 71
-0.092196397 0.057167098 0.32046255 0.00255827 298 67
-0.091146208 0.057453528 0.32243097 0.0025303042 296 67
-0.090153664 0.05778658 0.3246491 0.0026388066 282 64
-0.088885114 0.057951111 0.32590786 0.0025461188 291 66
-0.087414041 0.057987038 0.32642946 0.00252112 295 66
-0.086076207 0.058114197 0.32745072 0.0025658754 296 67
-0.084729463 0.058239833 0.32845035 0.0025497349 291 66
-0.08372952 0.058612883 0.33083379 0.0026431445 279 63
-0.08222311 0.058638722 0.33124566 0.0027101303 272 61
-0.080850922 0.058763105 0.33220163 0.0026616731 279 63
-0.078998707 0.058536652 0.33116093 0.0027448535 259 58
-0.077199928 0.058341574 0.33028376 0.0026543278 275 62
-0.076292075 0.058825541 0.33323982 0.0027174836 267 60
-0.074791215 0.058862839 0.3336558 0.0026415945 274 62
-0.073266424 0.058882479 0.33396071 0.0030226556 270 61
-0.072396904 0.059440974 0.33731273 0.0027988127 259 58
-0.071351953 0.059876923 0.33996174 0.0027814489 258 58
-0.069910116 0.059991974 0.3407802 0.0027860228 260 59
-0.068276905 0.059944343 0.34066492 0.0031457425 265 60
-0.067016311 0.060229331 0.34243101 0.0029846027 264 59
-0.065292835 0.060102049 0.34184438 0.0028622656 254 57
-0.063567705 0.05996687 0.34120351 0.003307431 262 59
-0.06206568 0.06004066 0.34174317 0.002848312 256 58
-0.060792521 0.06034546 0.34359047 0.0029947367 269 61
-0.059484534 0.060631119 0.34532216 0.0033925818 245 55
-0.058381118 0.061146811 0.34835789 0.002967376 242 54
-0.056416541 0.060764205 0.34626916 0.0033974976 236 53
-0.055192262 0.061179869 0.34872279 0.0030682592 228 51
-0.053765189 0.061388977 0.3499935 0.0029554144 244 55
-0.05206928 0.061294578 0.34952784 0.0029958433 244 55
-0.050961133 0.061908171 0.35309425 0.0029620631 235 53
-0.048753068 0.061181955 0.34901348 0.0032513072 235 53
-0.047350116 0.06145101 0.35060468 0.0030516579 225 51
-0.045835227 0.06158869 0.35144174 0.0035171211 231 52
-0.044428542 0.061887182 0.35319227 0.0032702282 224 50
-0.042877909 0.062000256 0.35388061 0.0034942841 224 50
-0.041265789 0.062029839 0.3540884 0.0029373472 243 55
-0.039922554 0.062482707 0.35670897 0.0030918436 230 52
-0.038186513 0.062333278 0.35588765 0.0031106714 221 50
-0.036586467 0.062402397 0.35631084 0.0033636289 226 51
-0.035119765 0.062716134 0.35812789 0.0032257477 235 53
-0.033545487 0.062859237 0.3589679 0.0033466441 221 50
-0.031830873 0.062740587 0.35831055 0.0032647613 235 53
-0.030118249 0.062613077 0.35760015 0.003581868 229 51
-0.028488193 0.062652394 0.35784033 0.0031745106 237 53
-0.027018741 0.063071452 0.36024749 0.0030943574 226 51
-0.025405727 0.063188307 0.36092687 0.0031202363 225 51
-0.023685593 0.063036442 0.36006981 0.0030877097 227 51
-0.022002732 0.062968381 0.35968989 0.0030855986 237 53
-0.020958371 0.064865366 0.37053367 0.003283734 211 47
-0.018738374 0.063137569 0.36067027 0.0036421383 206 46
-0.017418418 0.064401247 0.3678945 0.0034707806 215 48
-0.015827995 0.064829566 0.37034595 0.003248747 225 51
-0.014168066 0.065042309 0.3715651 0.0032728452 206 46
-0.012492125 0.065229923 0.37264001 0.0035047729 200 45
-0.010862533 0.0657579 0.37565881 0.0036397576 205 46
-0.0091490904 0.065882191 0.37637091 0.0035390432 190 43
-0.0074917781 0.066563338 0.38026378 0.0035553775 192 43
-0.0056694448 0.065746583 0.37559888 0.0034198635 198 44
-0.0039906385 0.066607825 0.38051987 0.004089098 205 46
-0.0022389919 0.066650294 0.38076305 0.0040265019 193 43
-0.00049578474 0.068160363 0.38939008 0.0033928808 203 46
0.0013462178 0.070684187 0.40380824 0.0040537226 204 46
0.0031578329 0.069609664 0.39766932 0.0036914772 208 47
0.0049405852 0.068921544 0.39373749 0.0034403054 199 45
0.0067783245 0.06916409 0.39512211 0.0037462632 209 47
0.0086039146 0.069206215 0.39536136 0.0037725652 208 47
nan nan nan 0 204 46
nan nan nan 0 204 46
0.014022519 0.068981007 0.39406756 0.0037343991 211 47
nan nan nan 0 200 45
0.017555919 0.068599373 0.39187929 0.0040445654 200 45
0.019277798 0.068303138 0.39018172 0.003430245 201 45
0.020584906 0.066713199 0.38109308 0.0033698452 201 45
0.021811076 0.065131508 0.37205061 0.0032828827 211 47
0.023488196 0.065028802 0.37145552 0.003331502 206 46
0.025129918 0.064848691 0.37041697 0.0033054617 208 47
0.026706824 0.064534888 0.36861321 0.003195934 218 49
0.028074915 0.063784182 0.36431244 0.0035042339 220 49
0.029712245 0.063695371 0.36379045 0.003120519 221 50
0.031313971 0.063543804 0.36290795 0.0031662788 219 49
0.032866731 0.063313268 0.36157233 0.0032461169 242 54
0.034469642 0.063196942 0.36088651 0.0030605881 227 51
0.036128495 0.063189156 0.36081776 0.0030234067 236 53
0.037929364 0.063419521 0.36210594 0.0031155893 227 51
0.039327014 0.062984683 0.35959285 0.0029753302 238 54
0.040805958 0.06270995 0.35799083 0.002962688 243 55
0.042083301 0.062158808 0.35480759 0.0030047325 245 55
0.043737229 0.062184319 0.35491237 0.0034395738 244 55
0.045373552 0.062183887 0.3548649 0.0028693192 254 57
0.046974503 0.062136672 0.35454604 0.0032767393 243 55
0.048566777 0.062081553 0.35417739 0.0029320458 247 56
0.050442584 0.06238066 0.35582423 0.0028615324 250 56
0.051373035 0.06152866 0.35090041 0.002830758 258 58
0.053231742 0.061806522 0.35241523 0.0029715311 236 53
0.054142617 0.06100003 0.34774175 0.0029949106 255 57
0.05601323 0.061290152 0.34931415 0.0031501248 252 57
0.057663437 0.061329592 0.34945083 0.0031414093 263 59
0.059072439 0.06111734 0.34814677 0.003165279 250 56
0.060500301 0.060935337 0.34700844 0.0026803333 280 63
0.061903704 0.060738731 0.34578001 0.0025644484 289 65
0.063427642 0.060667314 0.34525689 0.0028090032 269 61
0.064931482 0.060580656 0.34463912 0.0026756583 276 62
0.066136323 0.060225874 0.34248829 0.0031394043 259 58
0.06736172 0.059905984 0.34052855 0.002651178 279 63
0.06900429 0.059963234 0.34070396 0.0029863419 287 65
0.070435837 0.059838656 0.33983681 0.0026075481 285 64
0.071632855 0.059524629 0.33788493 0.002610316 283 64
0.073285416 0.059594486 0.33810249 0.0025519095 291 66
0.074947983 0.059669387 0.33833742 0.0026906007 293 66
0.075929962 0.059210487 0.33553576 0.0028101455 278 63
0.077072084 0.058892421 0.33352336 0.0026109521 288 65
0.078491084 0.05879429 0.33274615 0.0025123812 312 70
0.080133177 0.058863834 0.33290577 0.0026553201 278 63
0.081153862 0.058482923 0.33050653 0.00267352 272 61
0.082687281 0.058478806 0.33022535 0.0024952709 300 68
0.083912946 0.058261171 0.32872602 0.0024545505 313 71
0.084688246 0.057744265 0.32552794 0.0024323245 352 79
0.08592996 0.057558011 0.32418329 0.0026012312 330 74
0.087413386 0.057537291 0.32375765 0.0025549256 322 73
0.089100219 0.057648905 0.32406136 0.0022590233 347 78
0.090379484 0.057497479 0.32287151 0.0022038657 360 81
0.090810262 0.056820154 0.31871793 0.0022448488 350 79
0.092617601 0.057012122 0.31942767 0.0025076037 347 78
0.094467893 0.057223994 0.3202301 0.0026081314 349 79
0.095740877 0.057085004 0.31905192 0.0021182001 382 86
0.096947566 0.05691139 0.31766564 0.0022600747 375 85
0.098048612 0.056681987 0.3159537 0.0020468342 404 91
0.098433979 0.056051921 0.31199786 0.0022866612 394 89
0.099958628 0.056079637 0.31169063 0.0020085534 411 93
0.10119788 0.05594876 0.31048512 0.0020528301 421 95
0.10222109 0.055703908 0.30863258 0.0020288723 408 92
0.10362366 0.055669785 0.30793217 0.0020425851 404 91
0.10516126 0.05570814 0.30761477 0.002143326 426 96
0.10634656 0.055561382 0.30625826 0.0019779748 420 95
0.10726091 0.055278968 0.30414045 0.0018812325 458 103
0.10860042 0.055220291 0.30323958 0.0019352918 440 99
0.10999077 0.055188674 0.30247095 0.0020502829 437 99
0.11102003 0.05497906 0.3007125 0.0018218316 476 108
0.11190681 0.054705195 0.29859185 0.0018406835 465 105
0.11325569 0.054661319 0.29771453 0.0019288008 468 106
0.11465176 0.054641016 0.29695171 0.0018443788 470 106
0.1159735 0.054586247 0.29598886 0.0018468474 470 106
0.11787783 0.054803673 0.29648754 0.0019033687 445 101
0.11919713 0.054747134 0.29549116 0.0019541539 451 102
0.12003105 0.054471672 0.29330826 0.0019863592 420 95
0.12119915 0.054352574 0.29196522 0.0020104218 413 93
0.12206542 0.054102492 0.28991848 0.0019777375 442 100
0.12352765 0.054119259 0.28930268 0.0019595015 424 96
0.12523417 0.05424146 0.2892493 0.0021777332 404 91
0.1261925 0.054040506 0.28747758 0.0019809098 422 95
0.1273573 0.053931464 0.28620616 0.0022305562 400 90
0.12848569 0.053809565 0.28488061 0.0020303787 407 92
0.12935895 0.053584646 0.28302893 0.0021028914 395 89
0.13031107 0.053396899 0.28139779 0.002217582 397 90
0.13158144 0.053342178 0.28049386 0.0022919481 379 86
0.13265945 0.053211439 0.2792199 0.0020726183 394 89
0.13338438 0.052943297 0.27726087 0.0023092644 385 87
0.13481545 0.052958079 0.27682203 0.0024466221 346 78
0.13624625 0.052972462 0.27642047 0.0022926163 366 83
0.13750471 0.052920215 0.2757149 0.0022348068 349 79
0.13795267 0.052560225 0.27345565 0.0022765666 349 79
0.13845494 0.052227858 0.27139401 0.0024866497 349 79
0.13898738 0.051913302 0.26947987 0.0024166475 348 79
0.14023171 0.051868185 0.2690191 0.0023414805 331 75
0.14196189 0.052001905 0.26953962 0.0027157164 273 61
0.14165419 0.051393703 0.26627055 0.0028992414 243 55
-0.14290725 0.04711552 0.24109714 0.0034822142 210 47
-0.1454338 0.04835736 0.24695168 0.0032528583 208 47
-0.14722455 0.049373791 0.25166634 0.0035397811 230 52
-0.14919625 0.050469074 0.25679973 0.0030238223 233 52
-0.14982139 0.051124029 0.25971642 0.0033978287 201 45
-0.14790933 0.050917134 0.25829223 0.0033285569 205 46
-0.14824674 0.051487811 0.26085311 0.0035089373 188 42
-0.14896204 0.052201185 0.26417425 0.0040268637 192 43
-0.14879125 0.05261416 0.26601657 0.0032686386 208 47
-0.14852235 0.052999679 0.26776597 0.0031902653 219 49
-0.14598113 0.052573968 0.26546779 0.0028900136 248 56
-0.14572036 0.052969258 0.26736778 0.0026768125 275 62
-0.14574032 0.053474993 0.26987749 0.0028454831 256 58
-0.14520767 0.053785644 0.27145711 0.0031737417 259 58
-0.14431407 0.053967278 0.2724413 0.0026096541 279 63
-0.14318322 0.05406284 0.27304709 0.0025121239 295 66
-0.14233977 0.054269854 0.27427199 0.002794229 291 66
-0.14170285 0.054560475 0.27597597 0.002563721 289 65
-0.14044288 0.054614607 0.27653876 0.002580229 286 64
-0.13948731 0.054789394 0.27776542 0.0024561482 316 71
-0.13862251 0.055003762 0.27924475 0.0024269577 313 71
-0.13792196 0.05528836 0.28113103 0.0024452787 308 69
-0.136666 0.055353932 0.28195 0.0025826721 320 72
-0.13530448 0.055377666 0.2825965 0.002511851 324 73
-0.13394824 0.055404093 0.28329316 0.0023414446 330 74
-0.13311449 0.055649519 0.28514427 0.0022005725 364 82
-0.13166723 0.055640992 0.28572428 0.0024761548 357 81
-0.13024087 0.055641215 0.28637233 0.0022054978 358 81
-0.12909718 0.055763546 0.28766939 0.0024253279 366 83
-0.12805408 0.055932548 0.28922558 0.0020610723 397 90
-0.12732735 0.056245137 0.29154119 0.0020620397 392 89
-0.12637036 0.056461994 0.29337451 0.0022810209 394 89
-0.12510887 0.056546271 0.29452652 0.0023028194 392 89
-0.12377711 0.056600384 0.29552376 0.0021342763 376 85
-0.12218674 0.056536119 0.29590055 0.0021122543 390 88
-0.120666 0.056502908 0.29643375 0.0020211141 409 92
-0.11928631 0.056535751 0.29730624 0.00207162 400 90
-0.11846086 0.056835324 0.29957628 0.0024298888 377 85
-0.11730998 0.056984264 0.30104685 0.0022066813 379 86
-0.11588641 0.057002839 0.30181828 0.0021469933 394 89
-0.11430874 0.056945108 0.30217144 0.002239293 403 91
-0.11298732 0.057015203 0.30318817 0.0023489883 393 89
-0.11198499 0.057250269 0.30506989 0.0023593253 374 84
-0.11044604 0.057213586 0.30548945 0.0024017948 368 83
-0.10929032 0.057377115 0.3069624 0.0022243261 358 81
-0.10785797 0.057397902 0.30765623 0.0021823242 366 83
-0.10627136 0.057336021 0.30788893 0.0022187745 356 80
-0.10587892 0.057925742 0.3116079 0.0025671031 343 77
-0.10469126 0.058090996 0.3130326 0.0023467171 366 83
-0.10294758 0.057948038 0.31277862 0.0022888968 338 76
-0.10155613 0.058002066 0.31356916 0.0023183848 333 75
-0.10048207 0.058241654 0.31534743 0.002713891 313 71
-0.098927207 0.05820559 0.31561708 0.0027112525 313 71
-0.097068682 0.057987027 0.31487769 0.0023435187 331 75
-0.095765084 0.058098316 0.31591141 0.0025172909 301 68
-0.094868302 0.058463838 0.31831399 0.0023625284 325 73
-0.093628027 0.058626007 0.31959641 0.0023625647 327 74
-0.092210561 0.058680709 0.32027805 0.0025400547 295 66
-0.090869822 0.058786858 0.32122535 0.0023794877 323 73
-0.089816995 0.059086006 0.32321388 0.0024586604 311 70
-0.088524535 0.05923507 0.32436866 0.0025310644 300 68
-0.087142609 0.059328429 0.3252047 0.0025506965 290 65
-0.086897261 0.060212642 0.33036608 0.0025532495 297 67
-0.085167907 0.060081966 0.32994854 0.0026831594 273 61
-0.083431758 0.059941601 0.32946238 0.0029382647 287 65
-0.08230032 0.060238566 0.33136696 0.0026543543 275 62
-0.080565833 0.060097057 0.33084697 0.0027541521 284 64
-0.078722924 0.059867572 0.3298282 0.0029323322 265 60
-0.076950774 0.059683841 0.32904741 0.0029108049 275 62
-0.075751804 0.059946246 0.33071455 0.0030065058 262 59
-0.074383892 0.060083061 0.3316786 0.0027370322 275 62
-0.072934993 0.060158845 0.33229524 0.002733316 265 60
-0.072399974 0.061008014 0.33717573 0.0029792904 268 60
-0.070571482 0.060780652 0.33609787 0.0030332063 268 60
-0.069181994 0.060929663 0.33709079 0.0027174538 268 60
-0.06802915 0.061298799 0.33929303 0.0027672383 264 59
-0.066536389 0.061371863 0.33984813 0.0026297725 283 64
-0.065009214 0.061415948 0.34023389 0.0027627402 258 58
-0.063414313 0.061396655 0.34025979 0.0027029135 276 62
-0.061804835 0.061361905 0.34019148 0.003053871 265 60
-0.060445178 0.061579857 0.34151646 0.003117603 265 60
-0.058956921 0.06167496 0.34215301 0.0028309601 255 57
-0.057394564 0.061695673 0.34236953 0.0030176162 274 62
-0.056614298 0.062582076 0.34738451 0.0028856124 249 56
-0.054960821 0.062526792 0.34716672 0.0029101982 255 57
-0.05332021 0.062483251 0.34700748 0.003119444 255 57
-0.051770858 0.062547274 0.3474395 0.0031240555 252 57
-0.050183151 0.062567569 0.3476229 0.0030572782 246 55
-0.049730308 0.064050876 0.35593069 0.0030322156 236 53
-0.047419481 0.063160755 0.35104471 0.0030480085 231 52
-0.045722954 0.06305483 0.35051143 0.0028809425 245 55
-0.044089504 0.063031316 0.35043135 0.0029340561 246 55
-0.042598642 0.063217618 0.3515135 0.0028713783 250 56
-0.041167568 0.063510902 0.35318667 0.0032206632 241 54
-0.039605096 0.063617282 0.35381687 0.0032039466 246 55
-0.037885886 0.063470207 0.35303381 0.0030900757 251 56
-0.036298428 0.063540578 0.35345671 0.0031961114 254 57
-0.034956943 0.064068377 0.35642123 0.0031644565 246 55
-0.033399034 0.064231999 0.35735726 0.0030106443 238 54
-0.031658698 0.064043567 0.35633188 0.003093956 225 51
-0.030015618 0.064042032 0.35634372 0.0029154015 245 55
-0.028392948 0.064086385 0.35660869 0.0029183885 248 56
-0.026814248 0.064241521 0.35748804 0.002995003 235 53
-0.025291709 0.064560339 0.35927638 0.0030930107 226 51
-0.023625992 0.064532727 0.35913524 0.0033098429 217 49
-0.021960014 0.064500198 0.35896501 0.0030994096 221 50
-0.020283176 0.064427875 0.35857192 0.0034183254 225 51
-0.018615795 0.064375423 0.35828814 0.0030587784 231 52
-0.017154709 0.065095566 0.3623032 0.0032355038 224 50
-0.015566232 0.065435469 0.36420104 0.0034879439 219 49
-0.013946269 0.065709174 0.36572957 0.0030960031 225 51
-0.012344224 0.066154122 0.36821038 0.0033094808 207 47
-0.010659631 0.066227987 0.36862507 0.004069882 205 46
-0.0090954648 0.067219861 0.37414879 0.0034268389 197 44
-0.0073083686 0.066642776 0.37093905 0.003447348 206 46
-0.0055633355 0.066214085 0.36855465 0.003672617 209 47
-0.003884251 0.066538438 0.37036133 0.0037768052 213 48
-0.0021972477 0.067129143 0.37365001 0.0034585178 197 44
-0.00047354514 0.066816323 0.37190917 0.0032480974 214 48
0.001236111 0.066611156 0.37076706 0.0032987548 208 47
0.0029981593 0.067829341 0.37754717 0.0036305753 209 47
0.0046903254 0.067152485 0.37377864 0.0033107672 209 47
0.0063746194 0.06675674 0.3715744 0.0037360094 211 47
0.0081657153 0.067410223 0.37520978 0.0034022473 199 45
0.0098752063 0.067279398 0.37447894 0.0035871086 204 46
0.011855816 0.068759888 0.38271609 0.003761465 204 46
0.013423393 0.067771696 0.37721184 0.0033343898 201 45
0.014865723 0.066450208 0.36985192 0.0035050104 200 45
0.016462075 0.066018201 0.36744183 0.0033761188 200 45
0.018144825 0.065980956 0.36722791 0.0032259114 213 48
0.019774834 0.065774612 0.36607194 0.0032235347 215 48
0.021415897 0.065634608 0.36528382 0.0033373542 212 48
0.022938725 0.065179028 0.36273822 0.0031322513 229 51
0.024784669 0.065641098 0.36529794 0.0036155875 223 50
0.026394662 0.065459222 0.36427248 0.0028799092 250 56
0.027776828 0.064767882 0.36041009 0.0030146157 233 52
0.029284433 0.064430542 0.35851586 0.0033688061 237 53
0.030928586 0.064413607 0.35840243 0.0032768778 242 54
0.032597627 0.064447604 0.35856989 0.0033638009 237 53
0.034155272 0.064268708 0.35755032 0.0032075904 249 56
0.035624702 0.063947931 0.35573885 0.0030862638 249 56
0.037190873 0.063821398 0.35500509 0.003147576 248 56
0.038746562 0.063688301 0.3542316 0.0027675866 261 59
0.040154669 0.063333198 0.35222018 0.0031557691 242 54
0.041774247 0.063326292 0.35214165 0.0028334716 249 56
0.043431815 0.063375317 0.35237011 0.0028153453 256 58
0.045193534 0.063567318 0.35338902 0.0028168731 262 59
0.04669524 0.063392945 0.3523666 0.0027172787 270 61
0.04821983 0.063260332 0.35157177 0.0027822084 259 58
0.049611337 0.062967442 0.34988144 0.0027797732 261 59
0.051328097 0.063092813 0.35051 0.002859618 245 55
0.052811768 0.062932767 0.34954721 0.0031862308 255 57
0.054359015 0.062855735 0.34903976 0.0028889636 249 56
0.055734914 0.062590703 0.34748253 0.0031010087 265 60
0.057212241 0.062451232 0.34661627 0.0026992362 273 61
0.058765605 0.062400103 0.34623349 0.0026694462 276 62
0.060229037 0.062258709 0.34534311 0.0027068639 274 62
0.061597325 0.06202881 0.34395471 0.0025097108 299 67
0.063078985 0.061921783 0.34324038 0.0027440814 261 59
0.064616673 0.061873659 0.34284458 0.0031143511 258 58
0.065950349 0.061637171 0.34139693 0.0027705615 289 65
0.06740544 0.06152257 0.34061626 0.0027813115 290 65
0.068973534 0.061513994 0.34041354 0.002580456 290 65
0.070365734 0.061352447 0.33935499 0.002604936 308 69
0.071602993 0.061065812 0.33759573 0.0027696849 287 65
0.073068641 0.060982063 0.33694872 0.0024952984 307 69
0.07461343 0.060966495 0.3366679 0.0026428462 299 67
0.075173289 0.060163293 0.33202922 0.0024334309 311 70
0.076557025 0.060038511 0.33112627 0.0025581056 300 68
0.078569241 0.060401801 0.33290237 0.0024921109 301 68
0.079324812 0.059803657 0.32936835 0.0026358424 303 68
0.080940142 0.059864081 0.32945088 0.0024779846 309 70
0.082181752 0.059650999 0.32801583 0.0026409288 324 73
0.083554797 0.059539359 0.32712668 0.00244862 315 71
0.084758423 0.059313167 0.32559615 0.002403622 345 78
0.085981764 0.059108503 0.32417172 0.002433778 314 71
0.087455966 0.059080407 0.32370234 0.0026606086 332 75
0.088582233 0.058822218 0.32195905 0.0022301949 355 80
0.08960671 0.058506213 0.31988743 0.002319973 336 76
0.090730742 0.05826455 0.31821012 0.0022181773 362 82
0.0922243 0.058264174 0.31783634 0.0024394994 356 80
0.09439791 0.058686595 0.31974989 0.002252545 353 80
0.095791936 0.058618687 0.31897309 0.0021932828 364 82
0.096738636 0.058283385 0.31672722 0.0021727481 372 84
0.097295679 0.057727091 0.31326988 0.0021220096 380 86
0.098704405 0.057685219 0.31259146 0.0020822694 405 91
0.099999003 0.057578873 0.3115474 0.0020502149 405 91
0.10128941 0.057473235 0.31049123 0.0022694624 391 88
0.10211495 0.057110641 0.30803335 0.0019950711 416 94
0.10365193 0.057150558 0.30773136 0.0020059245 416 94
0.10508207 0.057131294 0.30709279 0.0019614503 448 101
0.10607819 0.056879818 0.30519092 0.0019909935 458 103
0.10709714 0.056647249 0.30337766 0.0018943103 452 102
0.10831115 0.056522693 0.30212912 0.0019537299 459 104
0.10980333 0.05654468 0.30164808 0.0019523947 465 105
0.11084688 0.056338072 0.29993305 0.0020052867 454 103
0.11197977 0.056181613 0.29847309 0.0018464741 470 106
0.11315507 0.056050126 0.29713398 0.0021099278 439 99
0.11455289 0.056030776 0.29637703 0.0018331233 468 106
0.11606828 0.056068707 0.29590976 0.0019042101 444 100
0.11719593 0.055920698 0.29445088 0.0018247615 471 106
0.11921456 0.056196257 0.29521066 0.0019823636 460 104
0.11987717 0.05583366 0.29261091 0.0019798027 470 106
0.12077164 0.055586338 0.29061678 0.0019025287 448 101
0.12200142 0.055497319 0.28945082 0.0021825912 427 96
0.12344155 0.055504933 0.28878883 0.0018696814 459 104
0.12449102 0.055338722 0.28722647 0.0019579406 437 99
0.12586409 0.055318471 0.28642926 0.0020503053 431 97
0.12747157 0.055400562 0.28616992 0.0021178732 415 94
0.1288292 0.055373445 0.28535843 0.00201741 431 97
0.12939206 0.055009041 0.28283003 0.002218995 393 89
0.13032785 0.054809328 0.2811757 0.0021224043 380 86
0.13145673 0.054694224 0.27998367 0.0023611281 378 85
0.13245133 0.054526255 0.27855316 0.0021079255 380 86
0.13343121 0.054355808 0.27714655 0.0020888804 387 87
0.13476527 0.054331668 0.27652478 0.0022373321 352 79
0.13608423 0.054302007 0.27591622 0.0024652979 349 79
0.13658352 0.053949177 0.27371275 0.002209258 355 80
0.13769796 0.053843975 0.27281618 0.0024990463 325 73
0.13808408 0.053458892 0.27055392 0.0025631671 340 77
0.13910121 0.053323265 0.26960859 0.0025769719 327 74
0.14077418 0.053439241 0.26998848 0.0027548915 298 67
0.14177553 0.053300504 0.26913568 0.002817085 287 65
0.14172585 0.052773032 0.2663762 0.003052898 267 60
-0.14346382 0.048511967 0.24220632 0.0038437606 180 40
-0.14431755 0.04921677 0.24521947 0.003450935 198 44
-0.14528668 0.049973395 0.24850915 0.0035872343 223 50
-0.14672388 0.050905529 0.25269127 0.0030711608 234 53
-0.14568311 0.050986744 0.25267789 0.0031454514 243 55
-0.14412332 0.050886132 0.25180277 0.0027857486 256 58
-0.14511387 0.051692203 0.25545049 0.0034506486 221 50
-0.14679106 0.052759554 0.26042125 0.0036529382 208 47
-0.14900045 0.054039285 0.26647362 0.0034030906 214 48
-0.14849555 0.054349013 0.26778391 0.0033639988 204 46
-0.14896785 0.055025421 0.27094787 0.003258209 212 48
-0.14773129 0.055077333 0.2710869 0.0030975984 231 52
-0.14674658 0.055225007 0.27175051 0.0029324172 252 57
-0.14582039 0.055397719 0.27259159 0.0033077407 240 54
-0.14412981 0.055280559 0.27206141 0.0026811212 278 63
-0.14345713 0.055555318 0.2735157 0.0026256631 283 64
-0.14270149 0.055803016 0.27489316 0.0028790275 288 65
-0.14185436 0.056019474 0.27617297 0.0024625945 307 69
-0.14075699 0.056140453 0.27703711 0.0026846956 322 73
-0.13943984 0.056175306 0.27752924 0.0024449881 316 71
-0.13845848 0.056347542 0.27875131 0.0026285048 320 72
-0.1377185 0.056622554 0.28053236 0.0024419159 311 70
-0.13662218 0.056755241 0.28165585 0.002361587 328 74
-0.13538867 0.056833137 0.28255019 0.0022468118 344 78
-0.13390499 0.056806549 0.2829628 0.0023110358 341 77
-0.13275304 0.056921635 0.28411523 0.0023129042 355 80
-0.13176076 0.057108413 0.28565764 0.0023373594 330 74
-0.13063422 0.057240453 0.28695455 0.0023550524 325 73
-0.12929639 0.057281818 0.28781947 0.002252023 362 82
-0.12863693 0.057628009 0.29023704 0.0021550781 375 85
-0.12774071 0.057874776 0.29217348 0.0022317208 357 81
-0.12604296 0.057759896 0.29229447 0.0021068412 384 87
-0.12484191 0.057872608 0.29357249 0.0021116715 381 86
-0.12374586 0.058037199 0.29511887 0.0023127589 392 89
-0.12210046 0.057944998 0.2953594 0.0020156852 405 91
-0.12043038 0.057838734 0.29552203 0.0023016755 402 91
-0.11951655 0.058097504 0.29754537 0.0021041732 399 90
-0.11867572 0.05839856 0.29978374 0.0020743024 391 88
-0.11769438 0.058637097 0.30169746 0.0023217699 363 82
-0.11632076 0.058683768 0.30261549 0.0021957576 360 81
-0.11452697 0.058516931 0.30241814 0.0021140301 410 93
-0.11276577 0.058362655 0.3022677 0.0021809994 425 96
-0.11169453 0.058566108 0.3039555 0.002223243 380 86
-0.11057194 0.058747686 0.30551785 0.0022322768 352 79
-0.10949033 0.05895621 0.30720788 0.0024418978 364 82
-0.10866773 0.059311811 0.30965295 0.002205794 359 81
-0.10711415 0.05927274 0.31002319 0.0023789806 361 81
-0.10599338 0.059475433 0.31164178 0.0022184676 362 82
-0.10439609 0.059412714 0.31185323 0.0022949164 353 80
-0.10255072 0.059204962 0.31128302 0.0025942654 332 75
-0.10117671 0.059267234 0.31211352 0.0021720629 367 83
-0.10051095 0.059752401 0.31515786 0.0022705488 344 78
-0.099097989 0.059801295 0.31588778 0.0024231574 331 75
-0.097262748 0.059592966 0.31524032 0.0025987118 302 68
-0.095687181 0.059539743 0.3153941 0.0023489296 326 74
-0.094571277 0.059775356 0.31706241 0.0025681308 337 76
-0.093845375 0.060269013 0.32008764 0.0027550228 296 67
-0.092310682 0.060250886 0.32038158 0.0025527421 296 67
-0.090604909 0.060118638 0.32005158 0.0026583313 321 72
-0.089289978 0.060245644 0.32108599 0.0025628563 287 65
-0.0882883 0.060591977 0.32327664 0.0028468326 289 65
-0.087364107 0.061004531 0.32580966 0.0026331502 281 63
-0.08553686 0.060789946 0.32497969 0.002416491 316 71
-0.08435718 0.061036136 0.32659861 0.0027425259 293 66
-0.083286531 0.061371751 0.32868484 0.002649944 281 63
-0.081889786 0.061475147 0.32951581 0.0028081564 294 66
-0.080291674 0.06142845 0.32952917 0.0028819668 266 60
-0.078471735 0.061206914 0.32859048 0.0027393729 270 61
-0.077142157 0.061366647 0.32968602 0.0027442295 266 60
-0.075595163 0.061356392 0.32985678 0.0027090977 267 60
-0.074151456 0.061431278 0.33047381 0.0028974279 291 66
-0.072880536 0.061655514 0.33188388 0.0026487405 276 62
-0.071342885 0.061658915 0.33209506 0.0025645189 286 64
-0.070002176 0.061836433 0.33323395 0.0026068175 283 64
-0.068793319 0.062141072 0.33504915 0.0031019968 280 63
-0.067655422 0.062525369 0.33728576 0.002785343 262 59
-0.066433944 0.062848784 0.33918616 0.0026354115 279 63
-0.06525322 0.063227348 0.34137663 0.0027811029 272 61
-0.063425101 0.062981844 0.3401891 0.0028500417 254 57
-0.061702542 0.06283132 0.33950529 0.0028203938 255 57
-0.060150728 0.062851362 0.33973449 0.0027577006 263 59
-0.058606688 0.062880792 0.34000692 0.0026844374 276 62
-0.057412669 0.063297771 0.34236813 0.0032724736 252 57
-0.056141917 0.06365139 0.34438062 0.0028892769 247 56
-0.0547591 0.063894868 0.34579137 0.0033108196 257 58
-0.053012077 0.063715257 0.34490585 0.0027871903 259 58
-0.051553398 0.0638818 0.34588793 0.0029053888 247 56
-0.050000299 0.063938253 0.3462683 0.0029325725 240 54
-0.048904669 0.064602755 0.34993675 0.0031278478 250 56
-0.047574621 0.064992405 0.35211217 0.003016965 237 53
-0.045737647 0.064692616 0.35054731 0.0030043137 242 54
-0.044018395 0.064543448 0.34979346 0.0029309758 244 55
-0.042501003 0.06469018 0.35063869 0.0028112323 256 58
-0.041045513 0.064946465 0.35207379 0.0030376064 254 57
-0.03945522 0.065001786 0.35241556 0.0033257282 246 55
-0.037737966 0.064843699 0.35159665 0.0032000949 240 54
-0.036146514 0.064897291 0.35192183 0.0028341927 252 57
-0.034613211 0.06506522 0.35286394 0.0029848879 236 53
-0.033017941 0.065127492 0.35323009 0.0029502406 245 55
-0.031534337 0.065427899 0.35488513 0.0035305135 233 52
-0.029974358 0.065594055 0.35580951 0.0030459033 231 52
-0.028321585 0.06556464 0.3556706 0.0029952961 235 53
-0.026765876 0.065770097 0.35680375 0.0029492634 243 55
-0.025248475 0.066102751 0.35862491 0.0030782644 249 56
-0.023617204 0.066163011 0.3589665 0.0031776479 235 53
-0.021902757 0.065981776 0.35799611 0.003321996 239 54
-0.020214831 0.065857425 0.35733271 0.0030747238 227 51
-0.01859824 0.065964021 0.35792097 0.0031392656 229 51
-0.017013833 0.066216625 0.3593002 0.0031123087 222 50
-0.015448731 0.066606916 0.36142546 0.0030298894 233 52
-0.013794059 0.066658691 0.36171284 0.003153906 236 53
-0.012142831 0.066743627 0.36217913 0.0037020268 213 48
-0.010460948 0.066660285 0.36173141 0.0035530669 210 47
-0.0087169474 0.066074498 0.35855636 0.003697745 223 50
-0.007131008 0.066693023 0.3619158 0.0030524924 233 52
-0.0055038161 0.067185536 0.36459082 0.0031347787 225 51
-0.0038379412 0.06743113 0.36592519 0.0032308844 218 49
-0.0021521326 0.067436934 0.36595774 0.0033016668 222 50
-0.00046506475 0.067302532 0.36522883 0.0030742022 231 52
0.0012159691 0.067206107 0.36470544 0.0035034304 230 52
0.0029414219 0.068252258 0.37038183 0.0035409997 216 49
0.0046116742 0.067719623 0.36749008 0.0034907782 208 47
0.0063336436 0.068028554 0.36916456 0.0035114877 208 47
0.0080733132 0.068356544 0.37094176 0.0032486029 216 49
0.0097501613 0.068130963 0.3697142 0.0032920502 201 45
0.011359413 0.067570388 0.36666813 0.0034301837 215 48
0.012857054 0.066577017 0.36127266 0.0032070482 221 50
0.014574108 0.066817321 0.36257079 0.0032372465 216 49
0.016319394 0.06712433 0.3642298 0.003429122 220 49
0.018026119 0.067230247 0.36479649 0.0031663387 220 49
0.019615307 0.066917136 0.36308831 0.0031335717 224 50
0.02114637 0.066470541 0.36065447 0.0034360287 227 51
0.022700505 0.066156253 0.3589372 0.0032853254 241 54
0.024383333 0.066234238 0.3593466 0.0030511324 244 55
0.026097149 0.066381134 0.36012802 0.0028949771 244 55
0.027479135 0.065716878 0.35650697 0.0032692207 245 55
0.029074714 0.065609567 0.35590538 0.0029082268 244 55
0.030763255 0.065712295 0.35644078 0.0028741946 250 56
0.032327745 0.065553062 0.35555282 0.0029299308 244 55
0.033883624 0.065392584 0.35465539 0.0031270606 248 56
0.035325743 0.065037422 0.35269952 0.0028581803 250 56
0.036796801 0.064764462 0.35118657 0.0027534722 264 59
0.038406365 0.064748012 0.35106125 0.0030740157 256 58
0.040002413 0.064711034 0.35082108 0.00314341 260 59
0.041469887 0.064477041 0.34950912 0.0026351749 277 62
0.043135758 0.064557455 0.34989747 0.0032383893 257 58
0.044596903 0.064336739 0.34864947 0.0027231644 268 60
0.046501815 0.064749293 0.35082847 0.0030755231 271 61
0.047900755 0.064453267 0.3491632 0.0031440509 266 60
0.049524143 0.064468689 0.34918013 0.0030354529 256 58
0.051180959 0.064525284 0.34941447 0.0031252608 254 57
0.052766815 0.064491704 0.34915468 0.0027577947 266 60
0.054181173 0.06425672 0.34779868 0.0029218588 243 55
0.055482756 0.063905381 0.34580725 0.0033669807 251 56
0.056777645 0.0635662 0.343876 0.0030188013 279 63
0.058562171 0.063778751 0.34492257 0.0028058472 277 62
0.06008666 0.063704342 0.34440964 0.0027194547 282 64
0.061266892 0.063278221 0.34198833 0.0024848271 302 68
0.062702626 0.063130796 0.34106645 0.0026242828 280 63
0.064060465 0.062914111 0.33976272 0.0025547929 296 67
0.065556705 0.062840477 0.33922344 0.0028607904 301 68
0.067217715 0.062924542 0.33952644 0.0025756166 288 65
0.068820342 0.062951341 0.33951074 0.002639842 277 62
0.070257679 0.062829152 0.33868194 0.0027527127 271 61
0.071360163 0.0624194 0.33629429 0.0025410112 297 67
0.072755776 0.062278092 0.3353442 0.0025450592 302 68
0.073940963 0.061966378 0.33346692 0.0025625045 299 67
0.074844301 0.061436087 0.33040515 0.0024060924 326 74
0.076836601 0.061803032 0.33215767 0.002803335 299 67
0.078077652 0.061563149 0.33063644 0.002747542 306 69
0.079896368 0.061779235 0.33155185 0.0025587061 298 67
0.080431566 0.061013456 0.32718742 0.0025167216 315 71
