# .PCD v0.7 - Point Cloud Data file format
VERSION 0.7
FIELDS x y z noise intensity gray
SIZE 4 4 4 4 2 1
TYPE F F F F U U
COUNT 1 1 1 1 1 1
WIDTH 873
HEIGHT 1
VIEWPOINT 0 0 0 1 0 0 0
POINTS 873
DATA ascii
-0.12495372 -0.066939279 0.51556426 0.0013452768 769 170
-0.12375299 -0.067588948 0.5208621 0.0013910489 745 164
-0.12089322 -0.067340352 0.51922101 0.0014126389 752 166
-0.1182543 -0.06720715 0.51845068 0.0013202071 804 177
-0.11510374 -0.066771664 0.5153293 0.0012935407 858 189
-0.11194134 -0.066310704 0.51199222 0.0012542694 872 193
-0.10899203 -0.065958805 0.50947905 0.0012290004 896 198
-0.10642013 -0.065824792 0.50863278 0.0012041983 934 206
-0.10386942 -0.065698124 0.50782835 0.0012387536 963 213
-0.10156141 -0.065722667 0.50817907 0.001175059 958 212
-0.099582225 -0.065966196 0.51021069 0.001211407 952 210
-0.098054051 -0.066527523 0.51468962 0.0012272988 902 199
-0.096270561 -0.066939205 0.51800084 0.0013285908 836 185
-0.095866762 -0.06835559 0.52907878 0.0013775856 733 162
-0.097390093 -0.071255997 0.55163902 0.0016082515 636 140
-0.096711233 -0.072657526 0.56259114 0.0016937464 579 128
-0.093656622 -0.072302274 0.55993134 0.001597351 625 138
-0.088744879 -0.070452556 0.54568541 0.0014218851 708 156
-0.085760184 -0.070069365 0.5427869 0.0014252798 735 162
-0.083376072 -0.070168592 0.54361665 0.0013973104 730 161
-0.080927767 -0.070218273 0.54405457 0.0014055994 726 160
-0.078736201 -0.070501029 0.54629117 0.0014127935 721 159
-0.076601982 -0.070855483 0.54907686 0.0014476831 682 150
-0.074180983 -0.070959844 0.54991806 0.0014416664 697 154
-0.071609721 -0.070922755 0.54965711 0.001512802 715 158
-0.068670586 -0.070505261 0.54644227 0.001504543 710 157
-0.065819636 -0.070149966 0.54370415 0.0013677906 754 166
-0.063214645 -0.070039064 0.54285568 0.0013271752 790 174
-0.06076882 -0.070102639 0.54335541 0.0014465248 771 170
-0.058219314 -0.070046939 0.54292673 0.0013654047 759 168
-0.055883221 -0.070254527 0.54453552 0.0014289642 728 161
-0.053896278 -0.07094121 0.54985493 0.0014457311 696 154
-0.051488534 -0.071114413 0.55119157 0.001433445 696 154
-0.049069535 -0.071289249 0.55253887 0.0014940926 669 148
-0.047000851 -0.072020002 0.55819273 0.0014896451 653 144
-0.04444078 -0.072038807 0.55832702 0.0015309053 672 148
-0.041668206 -0.071694307 0.55564439 0.0014662638 673 148
-0.039158631 -0.071786821 0.55634791 0.0015329277 672 148
-0.036824372 -0.072236203 0.55981654 0.0015027529 676 149
-0.034328684 -0.072412781 0.56117046 0.0014956578 646 142
-0.031781808 -0.072501332 0.56184208 0.0015037004 641 141
-0.029656887 -0.073653542 0.57075638 0.001530617 618 136
-0.027112542 -0.073886983 0.57255113 0.0016460241 622 137
-0.02456155 -0.074150674 0.57458085 0.0016118536 606 134
-0.021904701 -0.074119918 0.57432973 0.00162649 621 137
-0.019349057 -0.074470207 0.57703221 0.0015881639 608 134
-0.016802836 -0.074974149 0.58092642 0.0016064495 603 133
-0.01411526 -0.074918866 0.5804885 0.0016842652 565 125
-0.011406699 -0.074700281 0.57878715 0.0016611153 560 123
-0.008715556 -0.074497186 0.57720715 0.0016588314 564 124
-0.0060523194 -0.074458942 0.57690609 0.001620664 580 128
-0.0033835389 -0.07423912 0.57519984 0.001629522 609 134
-0.00073329447 -0.074306905 0.57572377 0.0016985927 608 134
0.0019252243 -0.074507564 0.57727891 0.001699504 586 129
0.0045907763 -0.074589662 0.57791704 0.0016348574 590 130
0.007176083 -0.073786378 0.571697 0.0016531224 608 134
0.0098250099 -0.073893018 0.57252866 0.0017157067 611 135
0.012287353 -0.072848313 0.56444108 0.0015427093 623 137
0.014856135 -0.072689444 0.56321841 0.0016616258 636 140
0.017367052 -0.07233683 0.56049585 0.0015033106 654 144
0.019967988 -0.072401904 0.56101102 0.0014658166 674 149
0.022482103 -0.072173342 0.5592519 0.0014534278 681 150
0.024859635 -0.071598426 0.55480975 0.0014136027 707 156
0.027433498 -0.071643457 0.55517215 0.0013936907 729 161
0.030067069 -0.07182344 0.55658084 0.0014112071 713 157
0.03286938 -0.072346523 0.56064892 0.0015260309 672 148
0.035527002 -0.07249812 0.56183827 0.001501818 650 143
0.038462482 -0.073157623 0.56696373 0.0016031135 660 146
0.041433834 -0.073797137 0.57193416 0.0015515806 638 141
0.044069666 -0.073798314 0.57195681 0.0015691427 626 138
0.046422448 -0.073352106 0.56851089 0.001550334 620 137
0.048874054 -0.073101379 0.56657863 0.001544097 640 141
0.050502021 -0.0717066 0.55577737 0.0015486969 651 144
0.052925292 -0.071521185 0.55434722 0.0015529307 646 142
0.055644903 -0.071734853 0.55600798 0.0015431595 637 141
0.058303285 -0.071854264 0.55693537 0.00156121 633 140
0.06078494 -0.071754985 0.55616462 0.0015859227 631 139
0.063128799 -0.071507655 0.55424273 0.0015694336 632 139
0.065287575 -0.071078055 0.5509041 0.0015952814 647 143
0.068142183 -0.071409799 0.55346215 0.0015864432 641 141
0.070562512 -0.07127893 0.55242974 0.0014656207 665 147
0.072475381 -0.070662409 0.54762828 0.0014742272 701 155
0.074873172 -0.07054425 0.54668361 0.0014826922 701 155
0.077237643 -0.070403427 0.5455572 0.0014682045 691 152
0.079965942 -0.070592634 0.54698139 0.0015334025 701 155
0.082164869 -0.070317261 0.54479873 0.0014468584 679 150
0.08496245 -0.070555359 0.54658657 0.001416148 713 157
0.087417811 -0.070503727 0.54612148 0.0014288848 704 155
0.090202294 -0.070712999 0.5476684 0.0014699268 673 148
0.092559166 -0.070584781 0.54659206 0.0014379128 699 154
0.094879344 -0.070436127 0.54534787 0.0014579046 689 152
0.096978672 -0.070135422 0.54291654 0.0014236643 710 157
0.099201314 -0.069936797 0.54126525 0.0014033905 717 158
0.10060129 -0.069182195 0.53530115 0.0014940089 717 158
0.10261175 -0.068873517 0.53277725 0.0013978983 764 169
0.10454705 -0.068530031 0.52997297 0.0013389924 771 170
0.10769836 -0.068981104 0.53329992 0.0014037952 752 166
0.10993039 -0.068836376 0.5320062 0.0013874903 726 160
0.11199544 -0.0685957 0.52995771 0.0014153378 726 160
0.11407625 -0.068374775 0.52804798 0.0013779763 744 164
0.11554065 -0.067801386 0.52340317 0.0013179827 796 176
0.11815682 -0.06791354 0.52403599 0.0013276119 785 173
0.1204718 -0.067851551 0.52330804 0.00134701 770 170
0.12266579 -0.067725219 0.52206719 0.0013793084 773 171
0.12470447 -0.067519665 0.52019906 0.0013602684 764 169
0.12685713 -0.067382462 0.51884031 0.0013708469 764 169
0.12897848 -0.067234032 0.51737726 0.0013882038 791 175
0.13091069 -0.066994235 0.51519322 0.0013493467 787 174
0.13328452 -0.066985004 0.51476288 0.0013676876 755 167
0.134817 -0.066560708 0.51112419 0.0013954806 773 171
0.13645704 -0.066203281 0.50798184 0.0013332176 788 174
0.13876346 -0.066175848 0.50735158 0.0013678174 757 167
0.14093526 -0.066086188 0.50622213 0.0013169032 805 178
0.14333346 -0.066103905 0.50589192 0.0013885645 794 175
0.14558315 -0.066053659 0.50501764 0.0013448438 772 170
0.1481463 -0.06614498 0.50520033 0.0013464858 777 171
0.15041059 -0.066102087 0.50433195 0.0014105401 773 171
0.15227136 -0.065885931 0.50211769 0.0013394238 777 171
0.1557799 -0.066378452 0.50527471 0.0014023528 714 158
0.15946589 -0.066930704 0.50884908 0.0014601976 680 150
0.158604 -0.065586008 0.49798128 0.0013461573 784 173
0.1577518 -0.064284384 0.48743877 0.001307524 853 188
0.15990414 -0.064226896 0.48631528 0.001258565 912 201
0.1618866 -0.064103775 0.48466787 0.0012290359 893 197
0.16434771 -0.064170972 0.48443088 0.0012578028 857 189
0.16950494 -0.065274589 0.491974 0.0014208178 737 163
0.17030935 -0.064694747 0.48679242 0.0013601326 763 168
0.17243676 -0.064626276 0.48543641 0.0012929472 836 185
0.17397757 -0.064342678 0.48243877 0.0012786248 844 186
0.17506988 -0.063902751 0.47824872 0.0012795499 847 187
0.1749474 -0.063036442 0.47085622 0.0012876102 856 189
0.17725947 -0.063058212 0.47008029 0.0012934005 827 183
0.17358981 -0.060978174 0.45363894 0.0011568662 999 221
0.17483287 -0.060654033 0.45027027 0.0010765615 1116 247
0.17555198 -0.060158279 0.44561478 0.0010697237 1186 255
0.17772983 -0.060168337 0.44468927 0.0010369382 1212 255
0.17915837 -0.059927527 0.4418906 0.0010646614 1229 255
0.18149544 -0.059992701 0.44132999 0.0010374275 1206 255
0.18403986 -0.060124099 0.44123393 0.0010574524 1241 255
0.18677172 -0.060313001 0.44153777 0.0010491578 1187 255
0.19008943 -0.060684621 0.44315562 0.0011082484 1069 236
0.18944438 -0.059797041 0.43557748 0.0010620551 1143 253
0.19103061 -0.059625685 0.43323016 0.001064326 1153 255
0.19259186 -0.059450399 0.43085921 0.001125332 1086 240
0.19214018 -0.058664348 0.42408317 0.0010925417 1131 250
0.19415267 -0.058639493 0.42283389 0.001096901 1110 245
0.19381373 -0.057912551 0.41655031 0.0011012889 1116 247
0.19493569 -0.057632882 0.41352287 0.0010988784 1151 254
0.19665249 -0.05753307 0.41181988 0.0010803703 1179 255
0.19812672 -0.057365097 0.40966758 0.001043692 1187 255
0.2002071 -0.057374269 0.40882385 0.0011493182 1027 227
0.20362173 -0.057761744 0.41071749 0.0014668508 684 151
0.21023847 -0.059040684 0.41898099 0.0020239132 473 104
0.21295862 -0.059210822 0.41941831 0.0022366433 378 83
0.21879733 -0.060236186 0.42596814 0.0024981247 309 68
nan nan nan 0 194 42
0.22874033 -0.061759289 0.43551451 0.0039772475 172 38
0.23049784 -0.061639555 0.43418723 0.0049020834 139 30
-0.3536185 -0.080738924 0.59283304 0.0047120363 160 35
-0.34820393 -0.08018057 0.58780211 0.0045342268 157 34
-0.34618303 -0.080400787 0.58858341 0.0039832559 163 36
-0.34644702 -0.081160091 0.59340733 0.0039636125 169 37
-0.34527805 -0.08159405 0.59595275 0.0046402458 162 35
-0.34398186 -0.082005352 0.5984422 0.0041524735 160 35
-0.34982067 -0.0841401 0.61361587 0.0045789867 155 34
nan nan nan 0 147 32
nan nan nan 0 155 34
nan nan nan 0 189 41
nan nan nan 0 171 37
-0.33880484 -0.085288703 0.62192136 0.0068987682 103 22
nan nan nan 0 94 20
nan nan nan 0 128 28
nan nan nan 0 243 53
-0.23219272 -0.060714666 0.4444091 0.0024944316 333 73
-0.22995555 -0.060717598 0.44507498 0.0034107121 175 38
nan nan nan 0 52 11
nan nan nan 0 39 8
nan nan nan 0 55 12
nan nan nan 0 152 33
-0.19916396 -0.05529036 0.40922305 0.0019228505 490 108
-0.1947507 -0.054626741 0.40524206 0.0011992945 923 204
-0.19289598 -0.054674394 0.40656275 0.0010685555 1127 249
-0.19308005 -0.055307053 0.41227481 0.0010778242 1105 244
-0.19138637 -0.055409648 0.41407171 0.0011048359 1082 239
-0.18872434 -0.055231061 0.41378218 0.0010605325 1145 253
-0.18611957 -0.055065509 0.41359419 0.0010572626 1205 255
-0.18344247 -0.054874655 0.41321412 0.0010627757 1192 255
-0.18132803 -0.054849714 0.41407928 0.001085709 1146 253
-0.18009186 -0.05509289 0.41696805 0.0010633647 1178 255
-0.18034132 -0.055801328 0.42338771 0.0010932309 1099 243
-0.17872773 -0.055943046 0.42551136 0.0011205283 1064 235
-0.17626235 -0.05581833 0.42559361 0.0010913711 1184 255
-0.1735899 -0.055624302 0.42512366 0.0010068594 1320 255
-0.170956 -0.055438127 0.42468679 0.00097166095 1363 255
-0.16875701 -0.055390175 0.42528298 0.00097603857 1345 255
-0.16688026 -0.055448093 0.42666894 0.00096231728 1384 255
-0.16546741 -0.055663526 0.42924681 0.00093268167 1459 255
-0.16200408 -0.05518591 0.4264507 0.00087448052 1588 255
-0.16006084 -0.055220511 0.42757952 0.00088692957 1557 255
nan nan nan 0 1561 255
-0.15677086 -0.055503622 0.43142298 0.00092531886 1439 255
-0.1546313 -0.055473387 0.43197238 0.00093857216 1396 255
-0.15207857 -0.05529213 0.43131557 0.0009501719 1389 255
-0.15025903 -0.055376135 0.4326995 0.0010028203 1305 255
-0.14826815 -0.055398438 0.43357575 0.0010065045 1260 255
-0.14713235 -0.055745341 0.43697017 0.0010126528 1249 255
-0.14565684 -0.055971585 0.439399 0.0010614663 1151 254
-0.14465889 -0.056390505 0.44332135 0.0010753474 1144 253
-0.14326343 -0.056664485 0.44608587 0.001116221 1121 248
-0.14104174 -0.056614943 0.44628012 0.001075508 1118 247
-0.1388752 -0.056586388 0.44661364 0.0010982344 1104 244
-0.13712631 -0.056729745 0.44828036 0.0010960971 1084 239
-0.13615966 -0.057206195 0.45256057 0.0011460083 1015 224
-0.13715531 -0.058535177 0.46357709 0.0012378774 904 200
-0.13939446 -0.060446098 0.47920555 0.001338627 792 175
-0.1424737 -0.062789589 0.49827322 0.0015158188 698 154
-0.14266063 -0.063915037 0.50767732 0.0014132881 739 163
-0.13688558 -0.062362298 0.49578202 0.0012066034 939 207
-0.13471524 -0.062426679 0.4967097 0.0011808022 961 212
-0.13291596 -0.062668264 0.49902707 0.001238242 892 197
-0.13246752 -0.063566662 0.50656003 0.0012782265 836 185
-0.13032284 -0.063668847 0.50773293 0.0012788192 842 186
-0.12870574 -0.064037308 0.51101136 0.0013207349 809 179
-0.12559268 -0.063661322 0.50832909 0.0013154882 830 183
-0.12441371 -0.064270079 0.51349187 0.0013313307 793 175
-0.12293641 -0.064745441 0.51757514 0.0013519308 768 170
-0.12067627 -0.064819247 0.51843256 0.0013897201 739 163
-0.11795942 -0.064645745 0.51729423 0.0013428202 781 172
-0.11464634 -0.064131536 0.51341027 0.0013185821 850 188
-0.11208452 -0.064024694 0.51276916 0.0013341099 840 185
-0.1095186 -0.063910849 0.51205599 0.0012724696 854 189
-0.10662641 -0.063597381 0.50972736 0.0012452381 883 195
-0.10409047 -0.063487023 0.50901163 0.0012561409 889 196
-0.10146691 -0.063316897 0.50780237 0.0012059255 928 205
-0.099171825 -0.063348539 0.50819826 0.0012054723 928 205
-0.097026728 -0.063479856 0.50938195 0.0012050852 923 204
-0.096130677 -0.064455159 0.51732838 0.0012614951 855 189
-0.094050609 -0.06466604 0.51913041 0.0013053665 811 179
-0.09364897 -0.066072129 0.53051919 0.0014980847 731 161
-0.094483465 -0.068449169 0.54969919 0.0015186402 635 140
-0.094023891 -0.069993928 0.56219029 0.0017176917 592 131
-0.089084655 -0.06819696 0.54783064 0.0015333521 686 151
-0.086230025 -0.067937516 0.545811 0.0014044062 726 160
-0.083160035 -0.067487709 0.5422529 0.0014741645 725 160
-0.08099854 -0.067770161 0.54457045 0.0014081952 722 159
-0.07885576 -0.068086825 0.54715568 0.0014231985 710 157
-0.07628461 -0.068042323 0.54683203 0.0015114615 712 157
-0.074153766 -0.068400919 0.54974163 0.001432049 706 156
-0.071672797 -0.068450518 0.55016208 0.0015172694 694 153
-0.06898161 -0.068295605 0.54893327 0.0014953974 705 156
-0.066168308 -0.068003409 0.54659611 0.001493872 712 157
-0.063304722 -0.067634359 0.54363656 0.0013722825 749 165
-0.06068287 -0.067503825 0.54259026 0.0013359126 782 173
-0.058545023 -0.067923605 0.54596359 0.0014591039 727 160
-0.056220222 -0.068154439 0.54781502 0.0014957574 712 157
-0.053850159 -0.068349518 0.54937619 0.0014382781 695 153
-0.051505536 -0.068597727 0.55136192 0.0014996645 681 150
-0.049138911 -0.068840861 0.55330479 0.0014563828 686 151
-0.04682513 -0.069188684 0.55608732 0.0016179017 641 141
-0.044284284 -0.069221847 0.55633938 0.0014909344 665 147
-0.041632529 -0.069075055 0.55514413 0.0014480888 690 152
-0.039024748 -0.068986796 0.55441856 0.0014264339 696 154
-0.036157552 -0.068395458 0.54964972 0.0014160094 714 158
-0.033591002 -0.068326585 0.54907954 0.0014196429 727 160
-0.031095283 -0.06840229 0.54967141 0.0013741978 743 164
-0.028508456 -0.068273231 0.5486182 0.0013677791 744 164
-0.025914917 -0.068101421 0.54722214 0.0013829038 738 163
-0.023573654 -0.068626985 0.55143034 0.0014594862 694 153
-0.021192808 -0.069150403 0.55562222 0.0014883325 676 149
-0.018642709 -0.069189541 0.55592382 0.0014707829 664 146
-0.016079178 -0.069183327 0.55586261 0.0015140765 684 151
-0.01382102 -0.070737712 0.5683412 0.0016219463 644 142
-0.011353476 -0.07169681 0.5760383 0.0015876973 592 131
-0.0087104188 -0.071794711 0.57681781 0.0016052027 596 131
-0.0060552331 -0.071834736 0.57713419 0.0016087079 586 129
-0.0034221557 -0.072405256 0.58171445 0.0016177486 572 126
-0.00074139447 -0.072445065 0.5820328 0.0016888297 565 125
0.001938405 -0.072338954 0.58118069 0.0016278372 569 125
0.0046685995 -0.073145539 0.58766329 0.0017299975 554 122
0.0073774564 -0.073148265 0.58768946 0.0017187175 542 119
0.0099409102 -0.072095014 0.57923347 0.0016727857 548 121
0.012654227 -0.072344489 0.58124566 0.0018267739 547 121
0.015330551 -0.072332248 0.58115703 0.0016688432 558 123
0.017667858 -0.070962004 0.5701586 0.0016048532 592 131
0.02027519 -0.070890702 0.56959814 0.0015813928 604 133
0.022899667 -0.070888817 0.56959665 0.0016174873 615 136
0.025400326 -0.070543453 0.56683636 0.0015808427 652 144
0.027492771 -0.069234498 0.55633378 0.0015466688 677 149
0.030082608 -0.069294579 0.55683261 0.0014450225 700 154
0.032746121 -0.069501586 0.55851269 0.0016057078 661 146
0.035896473 -0.070636421 0.5676493 0.0016330286 635 140
0.038795728 -0.071156546 0.57184649 0.0016649481 620 137
0.041493203 -0.071263969 0.57272685 0.0015652862 616 136
0.044098359 -0.071209483 0.57230526 0.0016594023 605 133
0.04640967 -0.070713393 0.56833375 0.0015385238 623 137
0.048488144 -0.069934495 0.56208766 0.0016099566 634 140
0.050383162 -0.068983376 0.55445558 0.0014771924 662 146
0.05276978 -0.068764672 0.55270815 0.0014917356 659 145
0.055180483 -0.068596035 0.55136102 0.0015579817 664 146
0.057572 -0.068419442 0.5499472 0.0014743219 659 145
0.060596678 -0.068978474 0.5544433 0.0015074688 657 145
0.063052081 -0.06887047 0.55357438 0.0015223401 665 147
0.065074295 -0.068316117 0.54911387 0.0014329333 698 154
0.067461081 -0.068171635 0.54794377 0.0014443982 683 151
0.069683045 -0.067877047 0.54556245 0.0014446937 711 157
0.072450764 -0.068116069 0.54746497 0.001428326 706 156
0.07458663 -0.067764938 0.54461873 0.0014237222 709 156
0.07704147 -0.067717038 0.54420352 0.0014449116 689 152
0.079670452 -0.0678204 0.54499733 0.0014513361 683 151
0.082724787 -0.068268463 0.54855371 0.0014760467 673 148
0.085236698 -0.068255588 0.54839855 0.0014373282 696 154
0.087767847 -0.068258427 0.54836136 0.001463539 671 148
0.090099156 -0.068110034 0.5471006 0.0015099465 679 150
0.092528522 -0.068041824 0.54647499 0.0014361972 699 154
0.094496325 -0.067646816 0.54321551 0.0014005734 729 161
0.095392078 -0.066524588 0.5341081 0.0013503 760 168
0.097214229 -0.066088639 0.5305022 0.0013867137 776 171
0.099617727 -0.066059619 0.53015244 0.0013542416 769 170
0.10155642 -0.065731145 0.52738827 0.0013255323 789 174
0.10398582 -0.065728232 0.52722442 0.0013409631 781 172
0.10644894 -0.065746263 0.52721578 0.0013756579 743 164
0.1091867 -0.065929331 0.52851635 0.0013919915 739 163
0.11179011 -0.066025034 0.52910173 0.0013732811 748 165
0.11339304 -0.065538391 0.52500671 0.0013583287 754 166
0.11560809 -0.065418512 0.5238362 0.0013566095 771 170
0.11791258 -0.06535314 0.52308679 0.0013444113 756 167
0.11995272 -0.065146811 0.5211935 0.001342006 774 171
0.12210163 -0.065006547 0.51981282 0.0014283628 778 172
0.12425104 -0.064871959 0.51846087 0.0013491524 812 179
0.126221 -0.06465055 0.51639825 0.0013220249 791 175
0.12832871 -0.064506643 0.5149371 0.0012964912 820 181
0.13116406 -0.06472706 0.51636428 0.0013259662 794 175
0.13258795 -0.064255543 0.51225245 0.0013192638 797 176
0.13472383 -0.064139627 0.51095766 0.0013752984 779 172
0.13682458 -0.064011261 0.5095436 0.0013485606 781 172
0.13837746 -0.063635342 0.50613987 0.001321935 805 178
0.14117135 -0.063833147 0.50727773 0.0013356776 777 171
0.14334978 -0.063750744 0.50616431 0.0013552632 761 168
0.14538503 -0.063608356 0.50455219 0.0013808412 746 165
0.14751488 -0.063511238 0.50327605 0.0013582532 766 169
0.14918447 -0.063222118 0.50045627 0.0013506041 791 175
0.15158492 -0.063246876 0.5000971 0.0013442987 780 172
0.15484579 -0.063624419 0.5024972 0.0014297167 739 163
0.15862803 -0.06420166 0.5064379 0.0014824496 666 147
0.15843013 -0.063174747 0.49770111 0.0013787189 753 166
0.15749317 -0.061887309 0.48690727 0.0012841702 869 192
0.15946634 -0.061763942 0.48525846 0.0012465448 869 192
0.16162251 -0.061713926 0.48415908 0.0012428262 880 194
0.16409764 -0.061785422 0.48398328 0.0013025649 887 196
0.16683039 -0.061950609 0.48450896 0.0013326735 788 174
0.1735681 -0.063578337 0.49641979 0.0014497084 682 150
0.17216331 -0.062219802 0.48498008 0.0013542206 774 171
0.17297752 -0.061688498 0.47998318 0.0012943489 828 183
0.17512044 -0.06163872 0.47871071 0.0013061562 860 190
0.17438062 -0.060588624 0.46965548 0.0012405044 886 196
0.17669936 -0.060614407 0.4689258 0.0012781933 839 185
0.17537126 -0.059404217 0.45862418 0.0012146678 939 207
0.1741292 -0.058252815 0.44878653 0.0011423609 1107 245
0.17541054 -0.057963416 0.44558716 0.0011189573 1142 252
0.17700742 -0.057784028 0.44321626 0.0010298942 1208 255
0.17870456 -0.057641272 0.44110829 0.0010060775 1251 255
0.18110991 -0.057727616 0.44073263 0.0010088291 1239 255
0.18360296 -0.057839569 0.44052917 0.0010009382 1262 255
0.18656194 -0.058094036 0.44138697 0.0010377861 1195 255
0.18982019 -0.058434822 0.442875 0.0010987406 1086 240
0.18986748 -0.057790607 0.43689236 0.0011341152 1102 243
0.19124115 -0.05755996 0.43404594 0.0010975369 1096 242
0.19302425 -0.057456259 0.43216038 0.0010993097 1091 241
0.19251259 -0.056679223 0.42522931 0.0011045088 1113 246
0.19330494 -0.056298714 0.42130277 0.001059967 1147 253
0.19230197 -0.055409033 0.41360313 0.0010488698 1188 255
0.19454865 -0.055464596 0.41299409 0.0010642413 1153 255
0.19639087 -0.055404887 0.41155237 0.0011687893 1067 236
0.19830976 -0.055367827 0.41031295 0.0012720049 863 191
0.20368382 -0.056286331 0.41617945 0.0016141004 590 130
0.20839542 -0.057005007 0.42058861 0.0020336509 421 93
0.21095513 -0.057126548 0.42063338 0.0020438721 412 91
0.21574937 -0.057844777 0.42512128 0.0023719387 369 81
nan nan nan 0 212 46
0.24313548 -0.063918106 0.46822119 0.0039247819 193 42
nan nan nan 0 103 22
0.31266037 -0.08062581 0.58911687 0.0091174357 67 14
-0.33735314 -0.074172936 0.56535572 0.0051632705 145 32
-0.35027674 -0.077671118 0.5911032 0.0042390781 165 36
-0.3523854 -0.078810692 0.59895015 0.0046351869 166 36
-0.34840089 -0.078595497 0.5965994 0.0039996551 164 36
-0.34536383 -0.078592144 0.59597135 0.0039839544 166 36
-0.34369731 -0.07890337 0.59784389 0.0051115616 151 33
-0.34507099 -0.0799243 0.6052084 0.0053296499 145 32
-0.34983012 -0.081754744 0.61881888 0.0049612285 150 33
nan nan nan 0 168 37
-0.35258225 -0.08390598 0.6349985 0.004591207 160 35
nan nan nan 0 193 42
nan nan nan 0 200 44
nan nan nan 0 116 25
nan nan nan 0 100 22
nan nan nan 0 114 25
nan nan nan 0 204 45
-0.23171598 -0.058916833 0.44866437 0.0022580982 356 78
nan nan nan 0 279 61
nan nan nan 0 71 15
nan nan nan 0 68 15
-0.20409061 -0.054004837 0.41440856 0.0024995806 293 64
-0.20003942 -0.053476989 0.41127604 0.0016927244 537 118
-0.19463517 -0.052572705 0.40526465 0.0011020015 1066 235
-0.19285923 -0.052639768 0.4067601 0.00099173933 1320 255
-0.19093883 -0.052668404 0.40798771 0.00097963691 1363 255
-0.18889967 -0.052664541 0.40898475 0.00098437676 1302 255
-0.1871883 -0.052752968 0.41071472 0.0009807857 1306 255
-0.18391696 -0.052398898 0.40900308 0.00097330974 1383 255
-0.18186621 -0.05238859 0.40997082 0.00098724826 1300 255
-0.17987663 -0.05239585 0.41107473 0.0010130507 1248 255
-0.17798942 -0.052433454 0.41241181 0.0010295737 1207 255
-0.17843701 -0.053167596 0.4192332 0.001090789 1102 243
-0.17808807 -0.053678662 0.42430699 0.0011144861 1054 233
-0.17625111 -0.053747948 0.42588389 0.0011178243 1061 234
-0.1738271 -0.053637728 0.42601901 0.0011222367 1068 236
-0.171918 -0.053685661 0.42738834 0.001179258 1072 237
-0.16944015 -0.053554993 0.42731187 0.0010872636 1120 247
-0.16707818 -0.05345818 0.42747757 0.0010392254 1191 255
-0.16630858 -0.053874802 0.43172935 0.0010815861 1193 255
-0.16373181 -0.053709123 0.43129319 0.001011423 1341 255
-0.16103365 -0.053498875 0.43046623 0.0009265464 1504 255
-0.15826559 -0.053259674 0.42937228 0.00090440211 1551 255
-0.15690304 -0.053493392 0.4320634 0.0009019759 1502 255
-0.15461583 -0.053413864 0.43219951 0.00093165151 1434 255
-0.1522015 -0.053287704 0.4319278 0.00093914778 1407 255
-0.15008505 -0.05326381 0.43245572 0.0010146971 1318 255
-0.14919299 -0.053679794 0.43653312 0.0010240439 1249 255
-0.14771479 -0.053893596 0.43894741 0.0010297149 1206 255
-0.14697105 -0.054385256 0.44360656 0.0010623495 1143 253
-0.14539857 -0.054580029 0.44582567 0.0010906708 1091 241
-0.1434925 -0.054653443 0.44703013 0.0011432229 1079 238
-0.14079225 -0.054422054 0.44571409 0.0010314002 1187 255
-0.13870312 -0.054423474 0.44627705 0.0010647661 1193 255
-0.13685204 -0.054519769 0.44759431 0.0010717163 1173 255
-0.13502201 -0.05462759 0.44898394 0.0010806459 1102 243
-0.13657014 -0.056127142 0.46180257 0.0011810261 949 210
-0.13906421 -0.05806987 0.4782736 0.0013465345 813 179
-0.1422925 -0.060387593 0.49784389 0.0014648761 685 151
-0.14199959 -0.061263066 0.50552505 0.0013497492 764 169
-0.13625441 -0.059776112 0.49368435 0.0012095188 971 214
-0.13361152 -0.059622496 0.4928211 0.0012051312 984 217
-0.13195919 -0.059913259 0.49561003 0.0012441156 961 212
-0.13007921 -0.060109142 0.49759585 0.001237003 891 197
-0.12912048 -0.060745537 0.50321245 0.0012587594 862 190
-0.12725802 -0.060972378 0.50542104 0.0013016434 834 184
-0.12633321 -0.061665416 0.5114792 0.0013436559 794 175
-0.12595062 -0.062654696 0.51998353 0.0013950551 739 163
-0.12334277 -0.062554009 0.51942742 0.0014095722 729 161
-0.12052306 -0.062339738 0.51790881 0.0013712212 749 165
-0.11740831 -0.061961073 0.51500458 0.0013079835 809 179
-0.11467983 -0.061774775 0.51368064 0.001304312 814 180
-0.11222329 -0.061730191 0.51351827 0.0013163105 808 178
-0.10961039 -0.061595812 0.51259297 0.0013157574 843 186
-0.10686132 -0.061377291 0.51095176 0.0012653779 860 190
-0.10405851 -0.061117329 0.50895041 0.0012557027 870 192
-0.10134707 -0.060900256 0.50729156 0.0012012785 930 205
-0.099079631 -0.060946032 0.50780922 0.0011807616 950 210
-0.096681111 -0.060911447 0.50764519 0.0012317423 932 206
-0.09427923 -0.060872957 0.50743699 0.0012435812 923 204
-0.092263073 -0.06108791 0.50933081 0.0012855702 891 197
-0.091483608 -0.062154319 0.51831526 0.0012927589 819 181
-0.091460437 -0.063805543 0.53217041 0.00150533 704 155
-0.09213841 -0.066050433 0.55097216 0.001552648 618 136
-0.091386944 -0.067368835 0.56203991 0.0015995706 595 131
-0.086848177 -0.065890774 0.54976857 0.0014886563 667 147
-0.083583154 -0.065319315 0.54505122 0.0014237933 714 158
-0.080514021 -0.064870246 0.54134679 0.0014116978 719 159
-0.078464061 -0.065239884 0.54446721 0.0013987845 724 160
-0.075667031 -0.064992264 0.54242957 0.0014112054 740 163
-0.073697388 -0.065462656 0.54637837 0.0013911632 737 163
-0.071279243 -0.065553851 0.54715669 0.001420928 703 155
-0.068763748 -0.065558918 0.54721093 0.0014949447 691 152
-0.066206649 -0.065523185 0.54691982 0.0015086805 698 154
-0.063630238 -0.065464772 0.54643494 0.0014899611 739 163
-0.06055605 -0.064868309 0.54145515 0.0014082245 775 171
-0.058626179 -0.065499067 0.5467155 0.0014737758 726 160
-0.056200817 -0.065608025 0.5476172 0.0013976493 725 160
-0.053744026 -0.065688819 0.54828131 0.0014272701 697 154
-0.051619504 -0.066203721 0.55256623 0.0014703545 669 148
-0.049190603 -0.066361427 0.55386782 0.0015315042 671 148
-0.046781469 -0.0665645 0.55554646 0.0015282364 640 141
-0.044266529 -0.066631839 0.55609095 0.0015189361 641 141
-0.041638546 -0.066526823 0.55519617 0.0014833041 665 147
-0.038986038 -0.066366322 0.55383778 0.0014741124 672 148
-0.036230884 -0.065996349 0.5507313 0.001519585 696 154
-0.033479519 -0.065578073 0.5472219 0.001370104 753 166
-0.031073285 -0.06582275 0.54924494 0.0013602462 770 170
-0.028173476 -0.06497255 0.54213274 0.0013140547 816 180
-0.025753085 -0.065170094 0.54376376 0.0013896715 780 172
-0.023324242 -0.065386534 0.54555339 0.0014582144 734 162
-0.020821152 -0.065421984 0.54583389 0.0014743167 737 163
-0.01824699 -0.065213174 0.54407787 0.0014297914 718 158
-0.015750794 -0.065260872 0.5444634 0.0014203829 707 156
-0.013356371 -0.065828227 0.54918593 0.0015077603 690 152
-0.010992775 -0.066848412 0.5576877 0.0014490723 681 150
-0.0084564174 -0.067120098 0.55994678 0.0016055655 652 144
-0.0058419784 -0.066738479 0.55675757 0.0014577647 673 148
-0.0032884772 -0.067000486 0.5589397 0.0015400201 683 151
-0.00071573729 -0.06734819 0.56183875 0.001493552 646 142
0.0018738845 -0.067341574 0.56178409 0.001528593 660 146
0.0044664959 -0.067387745 0.56217182 0.0015301162 646 142
0.0072055389 -0.068798125 0.57394218 0.0015329811 616 136
0.0098695466 -0.068926953 0.57502365 0.0015504031 606 134
0.012618523 -0.069469012 0.57955444 0.0016029949 579 128
0.015347078 -0.069728874 0.58173281 0.0016269051 575 127
0.018068966 -0.069885656 0.58305317 0.0017014099 560 123
0.020772077 -0.069938615 0.58350909 0.0016462727 565 125
0.023412075 -0.069791295 0.58229542 0.0018091714 556 123
0.026022615 -0.069595493 0.58067852 0.0016308435 580 128
0.028467428 -0.069034316 0.57601392 0.0016284939 597 132
0.030984147 -0.068728365 0.57347977 0.0015827318 606 134
0.033522792 -0.068515338 0.57172137 0.0015703344 610 135
0.03632899 -0.068840332 0.57445306 0.0017045139 601 133
0.039213676 -0.069259807 0.57797337 0.00164123 580 128
0.041549142 -0.068717591 0.57346827 0.0015740556 605 133
0.043915987 -0.068289004 0.56991076 0.0016236672 619 137
0.045613766 -0.06692709 0.55856293 0.0014985243 645 142
0.04771509 -0.066271126 0.55310541 0.0015295367 677 149
0.05002984 -0.065963082 0.55054986 0.0014765959 678 150
0.052551463 -0.065944359 0.55040741 0.0014877621 665 147
0.05485462 -0.065665841 0.54809439 0.001455616 683 151
0.05765491 -0.065980755 0.5507322 0.0015520504 682 150
0.05957114 -0.065300032 0.54505664 0.0014188053 706 156
0.061958645 -0.065170094 0.54397511 0.0014124538 714 158
0.064563811 -0.065270297 0.54481107 0.0014912661 712 157
0.067140125 -0.065334924 0.54534578 0.0014200407 702 155
0.070051134 -0.065708846 0.54845768 0.0015363668 676 149
0.072764792 -0.065878034 0.54985559 0.0014957004 657 145
0.076001689 -0.06649363 0.55497378 0.001616471 630 139
0.078394726 -0.066354908 0.55378991 0.0016465103 628 139
0.080367796 -0.065880649 0.54979956 0.0015092607 643 142
0.082584746 -0.065629184 0.54766184 0.0015207926 678 150
0.085111715 -0.06563171 0.54763621 0.0015350999 683 151
0.086889364 -0.065072902 0.54291928 0.0014193369 706 156
0.089237787 -0.064960875 0.54192197 0.0014226673 708 156
0.092057407 -0.065188624 0.54374987 0.0014227234 732 162
0.09244702 -0.06372916 0.53149641 0.0013327034 781 172
0.095012285 -0.063806124 0.53204852 0.0013602314 773 171
0.097248688 -0.063663937 0.53076267 0.0013269113 792 175
0.099493682 -0.06353423 0.52957022 0.0013307738 779 172
0.10168871 -0.063379578 0.52815861 0.0013389668 780 172
0.10391404 -0.063250624 0.52694964 0.001336576 775 171
0.10635599 -0.063256398 0.52685046 0.0014267677 765 169
0.10933954 -0.063576832 0.52935785 0.0013937808 732 162
0.11132467 -0.063315406 0.52700621 0.0014560316 753 166
0.11330193 -0.06306079 0.52469808 0.0013571501 774 171
0.11545095 -0.062910438 0.52324337 0.0014231818 771 170
0.11778354 -0.062864244 0.52263981 0.0013933617 774 171
0.1199197 -0.062717162 0.52118176 0.0013739837 773 171
0.1215997 -0.062342018 0.51781344 0.0013195067 810 179
0.12391283 -0.062299706 0.51719356 0.0013999729 771 170
0.12599215 -0.062143669 0.51561213 0.001345724 776 171
0.12941726 -0.062644877 0.5194633 0.0014720446 727 160
0.13168839 -0.062579378 0.51859337 0.0013896376 732 162
0.13360563 -0.0623511 0.51635545 0.0013860465 748 165
0.13595556 -0.062329222 0.51580733 0.0014744083 736 162
0.13821527 -0.062267456 0.51490778 0.0014810421 711 157
0.13975005 -0.061886761 0.51135141 0.0013923408 743 164
0.14151472 -0.061618924 0.50870889 0.0013798556 748 165
0.14331415 -0.061374795 0.50624228 0.0014291959 736 162
0.14492986 -0.061061174 0.50318247 0.0013745568 749 165
0.14685701 -0.060886659 0.50124812 0.0013355821 783 173
0.14894047 -0.06078143 0.49986118 0.0013237573 786 173
0.15083629 -0.060604058 0.49785739 0.0014133429 796 176
0.15260936 -0.06038351 0.49547616 0.0013349917 789 174
0.15640333 -0.060957205 0.49958146 0.0014647851 712 157
0.15820748 -0.060749888 0.49725443 0.0014544469 722 159
0.15713271 -0.059459221 0.48604748 0.0012703916 860 190
0.1593287 -0.059425484 0.48510125 0.0012344456 882 195
0.16157553 -0.059411392 0.48428711 0.0012484193 874 193
0.16402431 -0.059470922 0.4840433 0.0012557186 899 198
0.16649857 -0.059537925 0.48382896 0.0013172164 839 185
0.17363365 -0.061247148 0.49690628 0.0015529997 678 150
0.17220509 -0.059930328 0.48539713 0.0014264772 753 166
0.17310706 -0.059448659 0.48064646 0.0012658155 850 188
0.17190476 -0.058266301 0.4702245 0.0012407333 917 202
0.17330518 -0.057985205 0.46706793 0.0012376333 903 199
0.17375505 -0.057397243 0.46142375 0.0012064336 915 202
0.17465602 -0.056971181 0.45706859 0.0011969554 943 208
0.17432168 -0.056157712 0.4495979 0.001136968 1025 226
0.17682186 -0.056266129 0.44949281 0.0011395555 1075 237
0.17676187 -0.055567101 0.44292206 0.0010863675 1159 255
0.17897762 -0.055591624 0.44210654 0.0010200586 1233 255
0.18086286 -0.055514127 0.440458 0.0010403291 1231 255
0.18375199 -0.055742975 0.4412168 0.00099427579 1270 255
0.18693975 -0.056056105 0.44261402 0.001049152 1165 255
0.19046092 -0.056460921 0.44470567 0.0011312373 1033 228
0.19071084 -0.05589781 0.43916461 0.0011470089 1061 234
0.19141988 -0.05548032 0.43477869 0.0011212402 1074 237
0.18988448 -0.054428678 0.42544851 0.0010632256 1142 252
0.19137557 -0.054258019 0.42302987 0.0010551163 1199 255
0.18971293 -0.053206559 0.41377419 0.0010117437 1282 255
0.19149923 -0.053134505 0.4121688 0.00099782075 1267 255
0.19432168 -0.05334843 0.4127965 0.0011371187 1019 225
0.19893338 -0.054043964 0.41715747 0.0014523778 707 156
0.20452161 -0.054987669 0.42343476 0.0018527188 516 114
0.20615551 -0.05485978 0.42148381 0.0018295089 467 103
0.20443009 -0.053849589 0.41281936 0.0016620669 530 117
0.2099604 -0.05475175 0.41886988 0.0018174032 460 101
0.21696953 -0.056017805 0.42773122 0.0025326489 313 69
0.22205497 -0.056767184 0.43268648 0.0028314868 254 56
nan nan nan 0 178 39
nan nan nan 0 105 23
0.32452098 -0.08058548 0.61163396 0.00552845 107 23
-0.28842121 -0.060975872 0.48318443 0.0055359523 115 25
nan nan nan 0 146 32
-0.34848502 -0.074941352 0.59215564 0.0041781655 158 34
-0.34683713 -0.075233996 0.59377903 0.0040929015 158 34
-0.34502405 -0.075495608 0.5952664 0.0041369721 158 34
-0.34282854 -0.075677454 0.59623969 0.0042496221 152 33
-0.33810088 -0.07529857 0.59291828 0.0048014456 145 32
-0.33861282 -0.076090291 0.598939 0.0048611341 132 29
-0.34370336 -0.077934571 0.6133697 0.0048376359 132 29
-0.35209519 -0.080568001 0.63414532 0.0047052326 163 36
-0.35353732 -0.081645146 0.64281607 0.0042775366 168 37
nan nan nan 0 194 42
nan nan nan 0 212 46
nan nan nan 0 135 29
nan nan nan 0 97 21
-0.33322003 -0.080678709 0.63822383 0.0058847978 109 24
nan nan nan 0 173 38
nan nan nan 0 346 76
nan nan nan 0 383 84
nan nan nan 0 159 35
-0.2060506 -0.052426834 0.41862711 0.0026986485 283 62
-0.19954588 -0.051293723 0.41050884 0.0018226953 520 115
-0.19727729 -0.0512373 0.41102582 0.0011951162 1028 227
-0.19393367 -0.050897542 0.40929487 0.00097426132 1347 255
-0.1904902 -0.050524101 0.40730485 0.00092116039 1469 255
-0.18853682 -0.050542116 0.40848261 0.00095173076 1378 255
-0.18637159 -0.050503101 0.40921211 0.00094381662 1404 255
-0.18380503 -0.050353289 0.40904731 0.00095363503 1377 255
-0.18154795 -0.050285887 0.40954947 0.0010239219 1263 255
-0.17952399 -0.050282262 0.41056705 0.0010077468 1262 255
-0.17758651 -0.050303049 0.4117775 0.0010712902 1212 255
-0.17746814 -0.050845504 0.41725937 0.0010811902 1115 246
-0.17600834 -0.051011749 0.41965452 0.0011128101 1080 239
-0.17429736 -0.051108237 0.42146435 0.0011021149 1069 236
-0.17402071 -0.051632594 0.42679563 0.001151817 1035 229
-0.17248419 -0.051791247 0.4290958 0.0011744476 1027 227
-0.17027918 -0.051750585 0.42972383 0.0011243292 1041 230
-0.16760682 -0.05156514 0.42912087 0.0011041708 1080 239
-0.1661277 -0.051746756 0.43154702 0.0011181093 1132 250
-0.16431433 -0.051827524 0.4331103 0.0011026232 1170 255
-0.16147935 -0.05158402 0.43193391 0.0009805077 1322 255
-0.15914984 -0.051497754 0.43204147 0.00089942105 1551 255
-0.15671751 -0.051375534 0.43181646 0.00087932055 1593 255
-0.15455566 -0.051339906 0.43228933 0.00093575346 1417 255
-0.15313132 -0.051551607 0.43481958 0.00096922909 1336 255
-0.15069839 -0.051424909 0.43446946 0.00099325809 1294 255
-0.14970337 -0.05179216 0.43826833 0.0010258094 1231 255
-0.1490162 -0.052277725 0.44305247 0.0010455207 1191 255
-0.14726745 -0.052399401 0.44473329 0.001064277 1183 255
-0.14512844 -0.052383706 0.44522288 0.0010141961 1218 255
-0.14249201 -0.05218539 0.44413164 0.0010320521 1271 255
-0.13987222 -0.051987357 0.44301262 0.00097786798 1316 255
-0.13791786 -0.052034408 0.44395548 0.001032403 1306 255
-0.1368418 -0.052419353 0.44776091 0.0010385307 1195 255
-0.13483332 -0.052453529 0.44855028 0.0010865908 1101 243
-0.13647281 -0.053930365 0.46166635 0.0012296839 955 211
-0.13829052 -0.055526204 0.4758046 0.0012896851 841 186
-0.14209332 -0.057984162 0.49734041 0.0014013748 718 158
-0.1396172 -0.057918951 0.49723017 0.0013716186 828 183
-0.1357889 -0.057281129 0.49217543 0.0011640851 990 219
-0.13286987 -0.057011552 0.49025583 0.0011315297 1028 227
-0.13098857 -0.057185605 0.49212867 0.0011676688 988 218
-0.12881495 -0.057235964 0.49291751 0.0011757594 965 213
-0.12735565 -0.057611279 0.4964869 0.0012254112 940 208
-0.12666497 -0.05835453 0.50321352 0.0013173395 860 190
-0.12533101 -0.058823761 0.50756425 0.0013345873 795 175
-0.12454475 -0.059572913 0.51431745 0.0013721825 747 165
-0.12384879 -0.060395326 0.52169192 0.0014532283 688 152
-0.12140442 -0.060380884 0.52182323 0.0015419326 677 149
-0.11887226 -0.060321297 0.52154678 0.0014473592 736 162
-0.11500572 -0.059568092 0.51525342 0.0013235016 792 175
-0.11228317 -0.05938809 0.51389885 0.0013148558 816 180
-0.10990459 -0.059386183 0.51406956 0.0013767234 812 179
-0.10737087 -0.0592985 0.51348299 0.001293896 821 181
-0.10381968 -0.058632243 0.50787026 0.0012498387 874 193
-0.10135497 -0.058562972 0.50741351 0.0012304822 890 197
-0.098963231 -0.058533572 0.50728947 0.001279629 893 197
-0.096736647 -0.058602799 0.50800818 0.0012242789 902 199
-0.094193153 -0.05847872 0.50703973 0.0012153942 928 205
-0.091875553 -0.058492128 0.5072524 0.0012230992 902 199
-0.090843804 -0.059346277 0.51474696 0.0012572116 862 190
-0.089213476 -0.059844699 0.51914817 0.0013689733 749 165
-0.089394391 -0.061619088 0.53461158 0.0014422714 690 152
-0.090167634 -0.063913941 0.55458587 0.0015648979 613 135
-0.089086562 -0.064989954 0.56397843 0.0016230973 579 128
-0.085030623 -0.063895196 0.55452478 0.0015085043 650 143
-0.080498531 -0.06236374 0.54127181 0.0014400866 721 159
-0.077856839 -0.062245686 0.54027796 0.0014419652 733 162
-0.075275578 -0.062169746 0.53964305 0.0014316232 750 166
-0.072982207 -0.062334515 0.5410915 0.0014634825 758 167
-0.070734024 -0.062550902 0.54298258 0.0013855373 748 165
-0.068590894 -0.062879458 0.54584235 0.0014625783 730 161
-0.066148497 -0.062948219 0.54644215 0.0014056034 716 158
-0.063484862 -0.062803566 0.54518527 0.0013928658 734 162
-0.060463548 -0.062278587 0.54062301 0.0013800397 744 164
-0.058159851 -0.06247941 0.54235804 0.0013917192 725 160
-0.055943318 -0.062796101 0.54509586 0.0013782569 739 163
-0.053545948 -0.062930033 0.54624468 0.0014215363 727 160
-0.05122235 -0.063168153 0.54829562 0.0014415926 697 154
-0.04912914 -0.06372983 0.55315316 0.0015034315 684 151
-0.046626106 -0.063792273 0.55367583 0.0014662476 671 148
-0.044302721 -0.064121962 0.55651689 0.0015608693 629 139
-0.041739129 -0.064123131 0.5565058 0.0014970483 647 143
-0.039009556 -0.063852765 0.55413795 0.0015236266 667 147
-0.036490947 -0.063914038 0.55464798 0.0014472677 697 154
-0.03382355 -0.063704297 0.5528065 0.0014362818 700 154
-0.030822203 -0.062780187 0.54476672 0.001463372 737 163
-0.028258521 -0.062662683 0.54372716 0.0013560196 764 169
-0.025745796 -0.062646315 0.54356605 0.001359566 761 168
-0.023278246 -0.062748179 0.54443204 0.0014284279 755 167
-0.020778503 -0.062777393 0.54466897 0.0014363462 728 161
-0.018232897 -0.062657043 0.5436095 0.0014051429 721 159
-0.01573348 -0.062682353 0.54381561 0.0014016787 720 159
-0.013265253 -0.062865064 0.54538894 0.0014155684 705 156
-0.010827185 -0.063309573 0.54923534 0.0014314145 702 155
-0.008279209 -0.063186616 0.54816067 0.00145267 681 150
-0.0057424712 -0.063079074 0.54722184 0.0014397627 714 158
-0.0032059031 -0.062806353 0.54485202 0.0013894372 719 159
-0.00069460284 -0.062846184 0.54519588 0.0014062363 717 158
0.0018249605 -0.063061461 0.54706395 0.0013738259 740 163
0.0043543465 -0.063169435 0.54800326 0.0014630476 721 159
0.0068827337 -0.063188963 0.54817742 0.0014149914 703 155
0.0094019584 -0.063136466 0.54772902 0.0014326758 688 152
0.012145141 -0.064291745 0.55776042 0.0015558852 676 149
0.014789166 -0.064610146 0.5605337 0.0015048414 640 141
0.017531579 -0.06519974 0.56566185 0.0015348074 629 139
0.020182109 -0.065339185 0.56688654 0.0015651644 621 137
0.022774791 -0.065280855 0.56639689 0.0015119017 634 140
0.025288625 -0.065031752 0.56425351 0.0014691208 669 148
0.027907735 -0.0650746 0.5646444 0.0015029255 641 141
0.03073898 -0.065562576 0.56889892 0.0015213339 640 141
0.033501495 -0.065838799 0.57131696 0.0015130044 636 140
0.036027115 -0.065643117 0.56964082 0.0015202655 640 141
0.038830668 -0.065946028 0.57229179 0.001524338 633 140
0.040950201 -0.065122634 0.56516808 0.0015033153 648 143
0.042977989 -0.064260527 0.55770773 0.0014673425 669 148
0.045189317 -0.063754648 0.55333811 0.0014474114 684 151
0.047552612 -0.063505754 0.55119777 0.0014665304 666 147
0.049937941 -0.063310027 0.54951745 0.0015382167 653 144
0.052380502 -0.063202254 0.54859906 0.0015228782 652 144
0.054800734 -0.063078694 0.5475415 0.001537498 667 147
0.05701283 -0.062736981 0.54458809 0.0014904919 679 150
0.059490569 -0.062704064 0.5443123 0.001446992 688 152
0.061996959 -0.062702805 0.54430813 0.0014321514 703 155
0.064521618 -0.062719382 0.54445547 0.0014438491 692 153
0.067277424 -0.062950999 0.54646546 0.0014681581 669 148
0.070059419 -0.063189544 0.54853123 0.0014768321 661 146
0.073041461 -0.063585617 0.55195946 0.0015759896 636 140
0.076212749 -0.064114243 0.55653262 0.0016012734 616 136
0.078374833 -0.06378711 0.55367172 0.0015127836 636 140
0.080210626 -0.063223392 0.54875112 0.0015070346 653 144
0.082454413 -0.063005902 0.54682904 0.0015584982 684 151
0.084718853 -0.06281662 0.54514468 0.0014411544 699 154
0.086214237 -0.062084425 0.53874147 0.0014138207 725 160
0.088672273 -0.062067039 0.53853345 0.0013808593 745 164
0.090653338 -0.061725829 0.53550714 0.0013687761 751 166
0.09280967 -0.061518893 0.53363705 0.0014627802 742 164
0.095213518 -0.061482474 0.53323632 0.001378773 749 165
0.097527876 -0.061391551 0.53235269 0.0014048145 771 170
0.099634454 -0.061177518 0.53039098 0.0013466342 778 172
0.10192265 -0.061082587 0.52945077 0.0013705528 774 171
0.10403708 -0.060890395 0.5276559 0.0013337268 782 173
0.10669115 -0.06101561 0.52859908 0.0013734814 748 165
0.1090434 -0.060966481 0.52801824 0.0013696301 760 168
0.11141499 -0.060930073 0.52753383 0.0013745553 746 165
0.11342811 -0.060703386 0.52538806 0.0013776241 755 167
0.11562254 -0.060581196 0.52413267 0.0013682852 758 167
0.11768687 -0.060397245 0.5223282 0.001376032 751 166
0.12015366 -0.060423091 0.52232224 0.0013760778 759 168
0.12210714 -0.060194876 0.52010375 0.0013666475 758 167
0.12510672 -0.060481213 0.52231324 0.0014559287 710 157
0.12736215 -0.060403746 0.52136165 0.0015177261 692 153
0.13098748 -0.060966771 0.52591676 0.0014709851 668 147
0.13220647 -0.060409695 0.52078974 0.0014612854 677 149
0.13381857 -0.060048994 0.51734018 0.0014780167 703 155
0.13605246 -0.059975132 0.51634347 0.0014882011 692 153
0.13810152 -0.059823744 0.51465881 0.0013818969 747 165
0.13995621 -0.059594758 0.51228684 0.0013610129 756 167
0.1405191 -0.05883259 0.50531554 0.0013527594 757 167
0.14230508 -0.058599167 0.50286955 0.0013490234 800 177
0.14401877 -0.058344033 0.50021696 0.0013647552 814 180
0.14466062 -0.057669733 0.49395394 0.0012459791 861 190
0.14664087 -0.05754178 0.49235225 0.001266537 862 190
0.14929232 -0.057677101 0.49297765 0.0013161503 837 185
0.15111329 -0.057492327 0.49084151 0.0012774719 835 184
0.15326008 -0.0574352 0.48977068 0.0013188127 794 175
0.15805478 -0.05835744 0.49701473 0.0013799398 740 163
0.15703338 -0.05713664 0.48598242 0.0013162431 815 180
0.157968 -0.056652352 0.48120555 0.0012921388 889 196
0.15973236 -0.056475118 0.47901589 0.0012370526 924 204
0.16170718 -0.056376208 0.47746488 0.0011567466 979 216
0.16388093 -0.05634841 0.4764885 0.0012401741 925 204
0.17324056 -0.058758628 0.49606597 0.0014538397 699 154
0.17196779 -0.057546366 0.48501375 0.0013455636 781 172
0.16934302 -0.055919688 0.47047913 0.0012284567 905 200
0.17055677 -0.055586405 0.46682563 0.0012201153 963 213
0.17181756 -0.055276848 0.46335149 0.0011531489 983 217
0.17379631 -0.055203199 0.46183142 0.001153417 985 218
0.1734492 -0.054401897 0.45420939 0.0012233221 954 211
0.17472945 -0.054124542 0.45095217 0.0011407072 1015 224
0.17465438 -0.053439289 0.44428626 0.0010618025 1131 250
0.1767692 -0.053432535 0.4432478 0.0010417124 1181 255
0.17863598 -0.053351875 0.44157308 0.0010096508 1236 255
0.18074045 -0.053343263 0.44047326 0.0010301728 1248 255
0.1829737 -0.05337242 0.43966368 0.0010141669 1232 255
0.18673937 -0.053842746 0.44245949 0.0011521901 1104 244
0.18909617 -0.053900763 0.44183993 0.0011289222 1069 236
0.18780003 -0.05292796 0.43277621 0.0010724997 1125 249
0.18752654 -0.052261844 0.42624468 0.0010394996 1194 255
0.1894284 -0.052209973 0.42473263 0.0010373963 1189 255
0.18841197 -0.051363666 0.416776 0.00099038333 1292 255
0.18969367 -0.05115537 0.41402268 0.00096639624 1354 255
0.19134061 -0.051048953 0.41211048 0.0010714997 1193 255
0.19810104 -0.052294645 0.42110649 0.0013825636 761 168
0.20855989 -0.054480419 0.43762669 0.0021294535 429 94
0.20526724 -0.053065937 0.42524183 0.0017954545 488 108
0.20300245 -0.051943414 0.41528192 0.0016284572 566 125
0.20487356 -0.051891182 0.41394427 0.0017293531 549 121
0.20992121 -0.0526365 0.4190079 0.0020821413 442 97
0.2166838 -0.053792771 0.42737055 0.0023597458 352 77
0.22345853 -0.054929275 0.43560818 0.0031649601 258 57
nan nan nan 0 184 40
nan nan nan 0 136 30
0.27585927 -0.06586758 0.52006507 0.0039575109 169 37
-0.22652481 -0.045974981 0.3793667 0.0081449095 75 16
nan nan nan 0 111 24
nan nan nan 0 138 30
-0.34297651 -0.07142131 0.58703893 0.0041385712 155 34
-0.34357497 -0.072172016 0.59265816 0.0042331121 153 33
-0.3415122 -0.072372019 0.59386694 0.0048575089 154 34
-0.34049183 -0.072798438 0.59705389 0.0050371266 153 33
-0.34059021 -0.073473878 0.60240662 0.0054651699 135 29
-0.33882138 -0.073755108 0.6046564 0.0051984065 120 26
-0.34323364 -0.075399294 0.61821491 0.0063314978 119 26
-0.35139814 -0.077905744 0.63898957 0.0043160925 151 33
-0.35399684 -0.079213478 0.6500873 0.0039248304 173 38
nan nan nan 0 187 41
nan nan nan 0 238 52
nan nan nan 0 168 37
-0.33683336 -0.078292094 0.64537144 0.0067388653 110 24
nan nan nan 0 107 23
nan nan nan 0 139 30
nan nan nan 0 295 65
nan nan nan 0 467 103
-0.21424903 -0.052332744 0.43552586 0.0024930276 286 63
-0.20926414 -0.051640589 0.43075424 0.0023919521 342 75
-0.19850285 -0.049493805 0.41383317 0.0013273723 847 187
-0.19562922 -0.04928926 0.41313627 0.0010577695 1171 255
-0.19015387 -0.048417907 0.40685233 0.00095781754 1399 255
-0.18745108 -0.048241418 0.40640277 0.00098273286 1395 255
-0.18492882 -0.04810806 0.40632141 0.00095416798 1436 255
-0.18195583 -0.047853239 0.40521172 0.00093573227 1438 255
-0.18128973 -0.048206195 0.40925163 0.0010099554 1291 255
-0.17881671 -0.048081197 0.40923518 0.0010286553 1213 255
-0.1770566 -0.048147239 0.4108355 0.00099893322 1266 255
-0.17572391 -0.048332352 0.41344604 0.0010469445 1191 255
-0.17557789 -0.048851926 0.41891783 0.0010719427 1119 247
-0.17386083 -0.048941445 0.42069712 0.0010747599 1121 248
-0.17200775 -0.048994344 0.4221448 0.0011087705 1147 253
-0.17033572 -0.049100704 0.42403451 0.0011024839 1099 243
-0.16874795 -0.04923423 0.42614022 0.0010710323 1126 249
-0.1671605 -0.049371138 0.42825553 0.0010918551 1107 245
-0.16580781 -0.049581654 0.43099007 0.0010750758 1139 252
-0.16517578 -0.050015699 0.43565252 0.001100909 1111 245
-0.16271298 -0.049899396 0.43549937 0.0010394262 1196 255
-0.16089775 -0.049981236 0.43704727 0.00098090176 1363 255
-0.15683028 -0.049356423 0.43237922 0.00092446199 1506 255
