# .PCD v0.7 - Point Cloud Data file format
VERSION 0.7
FIELDS x y z noise intensity gray
SIZE 4 4 4 4 2 1
TYPE F F F F U U
COUNT 1 1 1 1 1 1
WIDTH 902
HEIGHT 1
VIEWPOINT 0 0 0 1 0 0 0
POINTS 902
DATA ascii
nan nan nan 0 74 17
-0.21248923 -0.094187699 0.42214543 0.0043203831 163 37
-0.20525087 -0.091904983 0.41233 0.0025476338 292 67
-0.20054618 -0.090721488 0.40750346 0.0022435347 348 80
-0.19819929 -0.090591103 0.40746969 0.0021170806 381 87
-0.19593385 -0.090495586 0.40765691 0.0021161432 401 92
-0.1934099 -0.090277389 0.40734994 0.0020724391 435 100
-0.19082853 -0.090027422 0.40695155 0.0020117771 473 108
-0.18786393 -0.089589275 0.405747 0.0017470827 506 116
-0.18548974 -0.089426182 0.40582705 0.0017223193 524 120
-0.18328819 -0.089343622 0.4063088 0.0017586577 526 120
-0.18069839 -0.089067832 0.40594092 0.0016156756 572 131
-0.17816773 -0.088815287 0.40570036 0.001661177 613 140
-0.17570525 -0.088591337 0.40560678 0.0014943293 650 149
-0.17334673 -0.088415198 0.40574372 0.0014539582 697 160
-0.17081988 -0.088148072 0.40546921 0.0013934921 798 183
-0.16820735 -0.087829888 0.40495965 0.001148467 1004 230
-0.16605434 -0.087746851 0.40553188 0.0011179557 1050 241
-0.16481921 -0.088152751 0.40836531 0.0012426918 923 212
-0.16341613 -0.088477686 0.41082618 0.0013485398 823 189
-0.162595 -0.089129731 0.41480789 0.0013804418 739 169
-0.16317919 -0.090578303 0.42250749 0.0015141268 635 146
nan nan nan 0 532 122
nan nan nan 0 371 85
-0.26748252 -0.15431514 0.72455102 0.0018530067 464 106
-0.26482987 -0.15481444 0.72841775 0.0020990132 416 95
-0.26203123 -0.15524068 0.73191464 0.0022958219 342 78
-0.25952709 -0.1558554 0.73627317 0.0025494483 343 78
-0.25646165 -0.15614541 0.73906761 0.0024888564 311 71
-0.25367507 -0.15661572 0.74268287 0.0027337461 309 71
-0.25068918 -0.15697461 0.74573648 0.0027950821 301 69
-0.24891874 -0.15811594 0.75247902 0.0027771147 291 66
-0.24602112 -0.15856418 0.75589496 0.0030728015 266 61
-0.24275017 -0.15878159 0.758174 0.0029106336 249 57
-0.23949006 -0.15901273 0.7604804 0.0030575343 235 54
-0.23512439 -0.15850571 0.75921309 0.0030988196 233 53
-0.22952932 -0.15714116 0.75378412 0.0031101434 231 53
nan nan nan 0 262 60
nan nan nan 0 324 74
nan nan nan 0 342 78
-0.15472317 -0.11295654 0.54473519 0.0023575753 351 80
-0.14800167 -0.1098723 0.53049916 0.0027985177 267 61
-0.15055282 -0.11368405 0.54953694 0.0028170422 262 60
-0.14948629 -0.11484948 0.55578411 0.0029381253 291 66
-0.14225006 -0.11123195 0.53884739 0.0020442496 398 91
-0.13871129 -0.11042704 0.53548932 0.0023233441 366 84
-0.13594165 -0.11021607 0.53498286 0.0024154969 315 72
-0.13306274 -0.1099069 0.53397459 0.0026699586 271 62
-0.13082324 -0.11012417 0.53550148 0.0030384508 228 52
nan nan nan 0 423 97
-0.114995 -0.10065103 0.49023941 0.001308871 808 185
-0.11256205 -0.10052092 0.48997867 0.0012948213 876 201
-0.10951876 -0.099829085 0.48695898 0.0013507963 793 182
-0.10585779 -0.098533034 0.48096794 0.0012160506 939 215
-0.10361889 -0.09853325 0.48128352 0.0011310891 1019 234
-0.10147859 -0.098629318 0.48205167 0.0011398189 1014 233
-0.10018312 -0.099569358 0.48693234 0.0011529536 1026 235
-0.098292403 -0.099947579 0.48905432 0.0011256402 1034 237
-0.096778236 -0.10073564 0.49317026 0.0011621234 1016 233
-0.094605543 -0.10085984 0.49402434 0.0011522417 1055 242
-0.092788763 -0.10137904 0.49680126 0.0011770249 1045 240
-0.090607636 -0.1015165 0.49769565 0.0011624175 1068 245
-0.089050926 -0.10237899 0.50213426 0.0011720378 964 221
-0.086932451 -0.10262459 0.50353718 0.0012657548 947 217
-0.084435925 -0.10242515 0.50274485 0.0011635461 1000 229
-0.082544863 -0.10296967 0.50559354 0.0011957196 933 214
-0.080373071 -0.10318556 0.50681913 0.0012645801 930 213
-0.078246891 -0.10347474 0.50839508 0.0012358199 892 205
-0.075948879 -0.10354757 0.50889868 0.0012660833 915 210
-0.073671393 -0.10365393 0.5095579 0.0011780808 965 221
-0.071275435 -0.10359511 0.50939626 0.0011962529 977 224
-0.068999514 -0.10371272 0.51009351 0.001170314 1003 230
-0.066707872 -0.10381415 0.51070338 0.0012157108 970 223
-0.064096421 -0.10340712 0.50880373 0.0011701891 960 220
-0.061836317 -0.10355747 0.50963908 0.0012267298 916 210
-0.05954824 -0.10367103 0.51028663 0.001204461 922 212
-0.057201985 -0.10368849 0.51045477 0.001286876 896 206
-0.054799292 -0.10360075 0.5100987 0.0013144092 852 195
-0.05227685 -0.10326857 0.50853282 0.0012525242 863 198
-0.050223581 -0.10387556 0.51158649 0.001248395 871 200
-0.047882095 -0.10391689 0.51184946 0.0012479993 863 198
-0.045671187 -0.1042606 0.51359713 0.0012912586 861 197
-0.043730676 -0.105293 0.51873326 0.0013797794 827 190
-0.042322043 -0.10779964 0.53112972 0.0013626645 797 183
-0.040133979 -0.10850702 0.53465831 0.0013737016 753 173
-0.03774612 -0.10873149 0.53580374 0.0013599681 757 174
-0.035375357 -0.10904011 0.53736031 0.0014133082 777 178
-0.032998595 -0.10937532 0.53904468 0.0013579269 762 175
-0.03042412 -0.10905644 0.53750211 0.0013360246 797 183
-0.027791388 -0.10845364 0.53455698 0.0013205486 815 187
-0.025298046 -0.10833044 0.53397256 0.0013815503 802 184
-0.022815108 -0.10823002 0.53349793 0.0012815649 841 193
-0.020334559 -0.10811803 0.53296357 0.0012851862 826 189
-0.017841609 -0.10790027 0.53190547 0.0012940208 838 192
-0.015336292 -0.10752642 0.53007543 0.0012725226 836 192
-0.013070999 -0.10901265 0.53741318 0.0013287392 806 185
-0.010673744 -0.10983604 0.54148144 0.0013509311 768 176
-0.0082128206 -0.11030695 0.54381007 0.0013503311 761 174
-0.0057999101 -0.11211973 0.55275232 0.0014454209 716 164
-0.0032653343 -0.11257841 0.55501693 0.0014095528 718 165
-0.0006942391 -0.11054158 0.54497671 0.0012995966 842 193
0.0018162942 -0.11045137 0.54453152 0.0012327026 885 203
0.0043280171 -0.1104962 0.54475027 0.0012212442 896 206
0.0068344232 -0.11042221 0.54438144 0.0012579885 862 198
0.009329902 -0.11025882 0.5435698 0.0012896074 877 201
0.011877758 -0.11065256 0.54550296 0.0012696336 882 202
0.014360103 -0.11040504 0.54427266 0.001245039 869 199
0.016847659 -0.11026526 0.54357147 0.0012424676 866 199
0.019277655 -0.10983372 0.54142988 0.0012264255 894 205
0.02175382 -0.10973401 0.54092169 0.0012877117 883 203
0.024238145 -0.10969175 0.54069436 0.0012269167 890 204
0.026816649 -0.11004384 0.54240799 0.001231588 874 200
0.029638031 -0.1112475 0.54831618 0.0012759244 836 192
0.032422528 -0.1121344 0.55265939 0.0013649948 789 181
0.035137329 -0.11266857 0.5552606 0.0013160147 792 182
0.037693042 -0.11265471 0.55515742 0.0013591824 832 191
0.040313266 -0.11282315 0.55594867 0.0012887613 872 200
0.042659849 -0.11225143 0.55308896 0.0012347731 984 226
0.045111883 -0.11200602 0.55183321 0.0011366648 1055 242
0.047666091 -0.11202697 0.55188519 0.0011059849 1083 249
0.050274998 -0.11216782 0.55252308 0.0010963817 1068 245
0.052887019 -0.11230171 0.55312139 0.0011184559 1041 239
0.05543286 -0.11228919 0.55299306 0.0011373537 1053 242
0.057924937 -0.11217367 0.55235177 0.0011122792 1041 239
0.060283437 -0.11182011 0.55053258 0.0011160767 1040 239
0.062702812 -0.11160351 0.54938143 0.001208782 996 229
0.065204799 -0.11154508 0.54900229 0.0012217897 885 203
0.067340754 -0.11088827 0.54567146 0.0014485039 752 172
0.068309195 -0.10842568 0.53344989 0.001365848 743 170
0.069088832 -0.10584531 0.52064586 0.0013048035 809 186
0.070797794 -0.1048144 0.5154593 0.0012487049 873 200
0.073073946 -0.10466298 0.51459068 0.0012449512 866 199
0.074445277 -0.10326601 0.50759131 0.0012461678 872 200
0.076072387 -0.10229835 0.50269598 0.0012143032 903 207
0.077011093 -0.10048983 0.49366313 0.0011734319 982 225
0.079073563 -0.10020959 0.49213129 0.0011345694 1011 232
0.081341721 -0.10019843 0.49191111 0.0011509806 1022 234
0.083698034 -0.10029349 0.4922016 0.0011766065 960 220
0.085882485 -0.10018305 0.49147233 0.0011832305 964 221
0.087874971 -0.099860154 0.48969001 0.0011668155 1009 232
0.090109996 -0.099822201 0.48929363 0.0011534771 998 229
0.092390135 -0.099834859 0.4891327 0.0011551009 990 227
0.094610825 -0.099784225 0.48864862 0.0011256628 1027 236
0.096980169 -0.099889047 0.48891214 0.0011216115 1038 238
0.099597208 -0.10023838 0.49035695 0.0011518162 1031 237
0.1020587 -0.10041904 0.49096045 0.0011930373 1002 230
0.10510877 -0.10115826 0.49427673 0.001174646 965 221
0.10894404 -0.10260535 0.50102919 0.0012923353 875 201
0.11167349 -0.10297213 0.50248379 0.0012384243 883 203
0.11280537 -0.10188101 0.49680939 0.001204627 939 215
0.11472373 -0.1015298 0.49473014 0.0012143395 911 209
0.11670858 -0.10125013 0.49298343 0.0011303688 1125 255
0.11867426 -0.10096496 0.49119326 0.0010472689 1162 255
0.1231031 -0.10274644 0.49943164 0.0011632794 1040 239
0.12724501 -0.10422657 0.50617093 0.0012777009 836 192
0.12690932 -0.10205204 0.49514374 0.0012567691 867 199
0.12783411 -0.10095096 0.48931864 0.0012423771 879 202
0.12910505 -0.10015724 0.48497096 0.0012586922 855 196
0.13248906 -0.10100187 0.48853371 0.001370737 793 182
0.14014189 -0.10501666 0.50738102 0.0015598744 639 146
0.14382246 -0.10597017 0.51138633 0.0013923415 720 165
0.14614952 -0.10591141 0.51047671 0.0013162276 856 196
0.14873874 -0.10604148 0.51045108 0.0012014707 924 212
0.15234788 -0.10688293 0.51381749 0.0012031579 918 211
0.15685599 -0.10831876 0.5199998 0.001287166 826 189
0.15967141 -0.1085594 0.52040565 0.0013853927 736 169
0.16027495 -0.10731173 0.51365638 0.0014246695 706 162
0.15324691 -0.10106836 0.48302206 0.0012799042 852 195
0.15367948 -0.099857047 0.47646609 0.0011637134 975 224
0.15575372 -0.099732213 0.47507817 0.0011760079 970 223
0.1561213 -0.098533802 0.46856087 0.0012024804 995 228
0.15777087 -0.09816698 0.46598518 0.0011179014 1039 238
0.16121738 -0.098912843 0.46866238 0.0011501285 999 229
0.16528857 -0.1000162 0.47299176 0.0011376478 1003 230
0.16807726 -0.10032412 0.47352159 0.0010796613 1095 251
0.1701882 -0.10022465 0.47210234 0.00099353213 1264 255
0.1724806 -0.10023328 0.47116977 0.00096988928 1317 255
0.17466664 -0.10018068 0.46992749 0.00094893278 1377 255
0.17683515 -0.10011949 0.46862558 0.00095733325 1405 255
0.17952883 -0.10035343 0.46868426 0.00094396574 1395 255
0.18283193 -0.10091787 0.47026139 0.00096877845 1333 255
0.18498956 -0.1008439 0.46884391 0.00096944626 1327 255
0.186904 -0.1006408 0.46681771 0.00097082526 1333 255
0.18790212 -0.099955164 0.4625546 0.00096925459 1331 255
0.19033028 -0.10003754 0.46184769 0.0010010367 1255 255
0.19518848 -0.1013801 0.46694282 0.0010737038 1123 255
0.19649854 -0.10086997 0.46350008 0.0010683493 1126 255
0.19325504 -0.09806104 0.44953939 0.0010281624 1233 255
0.19334072 -0.096986175 0.44358414 0.00098447583 1300 255
0.19459824 -0.096516758 0.44043425 0.0010215334 1296 255
0.19669543 -0.096469618 0.43924233 0.0010274679 1285 255
0.19967915 -0.096853517 0.44004163 0.0010206667 1251 255
0.20219608 -0.097005107 0.43981844 0.0010268685 1213 255
0.20468052 -0.097138017 0.43955234 0.0010534568 1153 255
0.20513207 -0.096313588 0.43501085 0.0011115454 1128 255
0.20684113 -0.096090771 0.43325162 0.0011794261 952 218
0.20952059 -0.096318707 0.43358651 0.0015570057 628 144
0.21604134 -0.098289564 0.44181976 0.0025054778 359 82
0.21789889 -0.098120235 0.44049394 0.0021732331 372 85
0.21908258 -0.097653948 0.43791524 0.0021763234 378 86
0.22036324 -0.09723983 0.43565425 0.0021680892 396 91
nan nan nan 0 332 76
nan nan nan 0 194 44
0.34014857 -0.14571404 0.65176159 0.0042492328 156 35
0.34690791 -0.14717689 0.65820312 0.0047389138 139 31
0.35475385 -0.14906839 0.66669023 0.0048959064 144 33
-0.45907718 -0.16691978 0.77683246 0.033766154 21 4
nan nan nan 0 20 4
nan nan nan 0 25 5
nan nan nan 0 23 5
nan nan nan 0 25 5
-0.52474266 -0.19921735 0.91830796 0.030411143 25 5
-0.51466602 -0.19713204 0.90733767 0.026437376 23 5
-0.50621545 -0.19563769 0.89925486 0.024404632 28 6
-0.5073877 -0.1978689 0.90844244 0.028951781 26 5
-0.49515378 -0.19486502 0.89375275 0.02797845 25 5
nan nan nan 0 22 5
nan nan nan 0 17 3
nan nan nan 0 21 4
-0.3871637 -0.15815532 0.72379339 0.024739094 25 5
-0.37696841 -0.15546735 0.71144289 0.023467217 26 5
-0.3754113 -0.1563243 0.71545672 0.026190219 30 6
-0.37737688 -0.15867922 0.72647208 0.021202425 29 6
-0.37130252 -0.15766665 0.72221488 0.022270363 31 7
nan nan nan 0 94 21
-0.20913441 -0.090594053 0.41565523 0.0032832136 225 51
-0.2024792 -0.088603601 0.40696734 0.0021967711 359 82
-0.20028041 -0.088542379 0.40720254 0.0022797475 376 86
-0.19704211 -0.088015556 0.40536097 0.0020449893 408 93
-0.19497387 -0.088005796 0.40596092 0.0020659799 422 97
-0.19295758 -0.088019535 0.4067283 0.0020483078 473 108
-0.19024917 -0.087714471 0.40607366 0.0017504508 503 115
-0.18715513 -0.08722306 0.40459716 0.0017726532 526 120
-0.18497911 -0.08715342 0.40511394 0.0017239603 547 125
-0.18256417 -0.086968414 0.405128 0.0017103867 575 132
-0.18027118 -0.086838007 0.40542325 0.001544426 613 140
-0.17814599 -0.086786404 0.40610901 0.0014869788 652 149
-0.17497769 -0.086219624 0.40439621 0.001427416 701 161
-0.1728787 -0.086172707 0.40512848 0.0014003796 789 181
-0.17006624 -0.085764877 0.40416762 0.0012165251 971 223
-0.16685739 -0.085145108 0.40220064 0.0010104105 1246 255
-0.16639253 -0.085927494 0.40685883 0.0011444397 1075 247
-0.16504663 -0.08626838 0.40943542 0.001258036 915 210
-0.16431445 -0.08694239 0.41359729 0.001336886 785 180
-0.16248451 -0.087045096 0.41503981 0.0014114993 711 163
-0.16414846 -0.089045748 0.42554194 0.0015508654 614 141
nan nan nan 0 367 84
nan nan nan 0 340 78
-0.2675353 -0.15083815 0.72556722 0.0020065019 413 94
-0.26576161 -0.15182863 0.7318508 0.0021759523 371 85
-0.26271847 -0.15211079 0.73469627 0.0022774036 348 80
-0.25955647 -0.15233091 0.73720902 0.0023311761 334 76
-0.25657758 -0.15266603 0.74024403 0.0024316183 320 73
-0.25576878 -0.15431993 0.74965101 0.0025885848 294 67
-0.25198239 -0.15419881 0.75040787 0.0026327334 288 66
-0.24831632 -0.15414883 0.7514677 0.0027372187 275 63
-0.24608479 -0.15500098 0.75689012 0.0033789393 246 56
-0.24347556 -0.15563704 0.76122713 0.0031613249 232 53
-0.23976828 -0.15557976 0.76213557 0.0033310698 212 48
-0.23499128 -0.154816 0.75953531 0.0036845442 213 48
-0.22895689 -0.1531872 0.75263292 0.0033589441 229 52
nan nan nan 0 316 72
-0.16188194 -0.111788 0.55073309 0.0025104606 342 78
-0.15642591 -0.10978317 0.54155105 0.0026092001 280 64
nan nan nan 0 267 61
-0.1738655 -0.12613975 0.62373972 0.0038976429 198 45
nan nan nan 0 193 44
nan nan nan 0 270 62
-0.13955231 -0.10664269 0.52904654 0.0022067365 353 81
-0.14093083 -0.10964445 0.54447657 0.0026490819 282 64
-0.1363641 -0.10804617 0.53704709 0.0025601338 324 74
-0.13351162 -0.10777164 0.53616595 0.0024885943 300 68
-0.12943234 -0.10647741 0.53018284 0.0024003952 331 76
nan nan nan 0 524 120
-0.11482987 -0.098222516 0.48986191 0.0012438854 864 198
-0.11240932 -0.09810333 0.48963061 0.0012929399 898 206
-0.10890814 -0.097016551 0.48454803 0.0012818268 839 192
-0.1061194 -0.096531883 0.4824501 0.0012207072 962 221
-0.10394532 -0.096597478 0.48308465 0.001166045 977 224
-0.10204627 -0.096927203 0.48502541 0.0011547533 993 228
-0.10011055 -0.097236194 0.48684907 0.0011403784 1015 233
-0.098265201 -0.097649269 0.48918107 0.0011712303 1023 235
-0.096584789 -0.098249681 0.49243972 0.0011379089 1020 234
-0.094641373 -0.098605163 0.49445933 0.0011307561 1017 233
-0.091983207 -0.098215103 0.49272698 0.0010962525 1086 249
-0.089812011 -0.09833841 0.49355662 0.001121975 1043 239
-0.08829926 -0.099207953 0.4981212 0.0011215213 1031 237
-0.086776793 -0.10011291 0.50285518 0.0011605467 983 226
-0.084501758 -0.10017561 0.50334895 0.0011769795 965 221
-0.082381234 -0.10043024 0.50479656 0.0011856824 963 221
-0.080309577 -0.10076104 0.50661743 0.0011857181 952 218
-0.078188501 -0.10104784 0.5082078 0.0012539692 903 207
-0.076034859 -0.10130902 0.50966048 0.0012679532 874 200
-0.073653273 -0.10127349 0.50961143 0.0012069119 913 209
-0.07129281 -0.10126561 0.50969255 0.0012701259 938 215
-0.068800479 -0.1010635 0.50878757 0.0011710873 961 220
-0.066554785 -0.10122219 0.50969094 0.0012637282 940 216
-0.064105712 -0.10107186 0.5090307 0.0011882366 942 216
-0.061653659 -0.10090522 0.50828087 0.0012212485 916 210
-0.059254277 -0.10081499 0.50790912 0.0012349114 887 203
-0.057131145 -0.10120672 0.50995922 0.0012360134 889 204
-0.054696251 -0.10105608 0.50927055 0.0012984866 868 199
-0.051986132 -0.10036059 0.50583005 0.0012116672 917 210
-0.049819324 -0.1006979 0.50758946 0.0012125925 910 209
-0.047714144 -0.10119919 0.51017088 0.0012203823 900 206
-0.04553419 -0.10158569 0.5121693 0.0012425944 885 203
-0.043450784 -0.10224164 0.51552242 0.0012658137 856 196
-0.041619703 -0.10360165 0.52242219 0.0013820325 809 186
-0.040032987 -0.1057744 0.53341782 0.0013787642 742 170
-0.037778016 -0.10635038 0.53635824 0.0014622858 755 173
-0.035435975 -0.10674482 0.53837973 0.0013595555 757 174
-0.032963309 -0.10677551 0.53856355 0.0014359158 753 173
-0.030367834 -0.106381 0.53659964 0.0013796859 795 182
-0.027845724 -0.10619628 0.53569096 0.0013218978 791 181
-0.025422424 -0.10638916 0.53668439 0.0013335962 785 180
-0.022842551 -0.10589775 0.53422326 0.001329065 792 182
-0.020327762 -0.10562576 0.53286684 0.001299869 823 189
-0.017827429 -0.10536447 0.53156203 0.0012969295 824 189
-0.015365073 -0.10528011 0.53114784 0.0012916295 814 187
-0.01302481 -0.1061589 0.53559095 0.0013300469 785 180
-0.010631515 -0.10691538 0.53941542 0.001366135 747 171
-0.0082207546 -0.1079044 0.54441148 0.0013699353 753 173
-0.005724241 -0.10814232 0.54561633 0.0013882369 739 169
-0.0032682077 -0.11011692 0.55558181 0.0015516031 685 157
-0.00069446967 -0.10806546 0.54523259 0.0013133617 802 184
0.0018187047 -0.10808464 0.54532909 0.0012445241 872 200
0.0043321787 -0.10808905 0.54534942 0.0012406227 867 199
0.0068402714 -0.10800523 0.54492295 0.0012438593 864 198
0.0093343826 -0.10780498 0.54390734 0.0012261887 896 206
0.011847833 -0.10786557 0.54420608 0.0013102831 864 198
0.014359305 -0.10789013 0.54432124 0.0012613273 874 200
0.016859088 -0.10783263 0.54402053 0.0013163614 864 198
0.019314479 -0.10754281 0.54254586 0.0012364212 878 201
0.021782294 -0.10738073 0.54171342 0.0012785794 872 200
0.024315696 -0.10754203 0.54251033 0.0012517698 865 198
0.027019173 -0.1083553 0.54659361 0.001260726 848 194
0.029760027 -0.10916694 0.55066574 0.0012978306 805 185
0.032383259 -0.10945346 0.552086 0.0013123143 796 183
0.035059575 -0.10986458 0.55413151 0.0012927932 811 186
0.037649639 -0.10996789 0.55462122 0.0012457659 863 198
0.040168349 -0.10986292 0.554057 0.0011864222 939 215
0.042658266 -0.10969647 0.55317909 0.0011659835 998 229
0.045096815 -0.10942414 0.5517633 0.0011469732 1085 249
0.047614396 -0.10936245 0.55140561 0.0011457239 1072 246
0.050260041 -0.10958623 0.55248255 0.0011948987 1036 238
0.05292917 -0.10983716 0.55369127 0.0011408065 1007 231
0.055434134 -0.10973997 0.55313981 0.0011266544 1020 234
0.05783055 -0.10944594 0.55159068 0.0011177544 1040 239
0.060225002 -0.10917311 0.550143 0.0011241199 1026 235
0.062674865 -0.10901874 0.54928625 0.001174416 971 223
0.065051079 -0.10875326 0.54786336 0.0013029583 854 196
0.066415124 -0.10687879 0.5383296 0.0014094228 762 175
0.067145146 -0.10415606 0.52452004 0.0013129886 802 184
0.068901688 -0.10315981 0.51940089 0.0012579502 860 197
0.07073018 -0.10233471 0.51513743 0.001209907 914 210
0.073095292 -0.10231443 0.51491791 0.0012343053 879 202
0.075488187 -0.1023331 0.51488584 0.0012713911 839 192
0.076918744 -0.10108593 0.50847721 0.0012480926 872 200
0.078037925 -0.099515662 0.50043768 0.0011883992 949 218
0.079069242 -0.097927012 0.49230069 0.0011638638 1030 236
0.081391349 -0.097981192 0.49241477 0.0012028837 1007 231
0.083666034 -0.097976878 0.49222419 0.0011805063 973 223
0.085506611 -0.097477928 0.48953858 0.0011706639 967 222
0.087749593 -0.097451627 0.48921615 0.0012160708 959 220
0.090066217 -0.097506382 0.4892886 0.0011637706 971 223
0.092479497 -0.097660527 0.48984692 0.0011681463 964 221
0.094478302 -0.097380064 0.48821262 0.0011682173 969 222
0.096740499 -0.097377859 0.48796052 0.0011458121 995 228
0.099183574 -0.097553656 0.48858601 0.0011085353 1064 244
0.1017792 -0.097868301 0.48989093 0.0011206445 1038 238
0.10438167 -0.098175615 0.49114227 0.001162796 978 224
0.10731469 -0.098773994 0.49383128 0.0012182727 932 214
0.10915899 -0.098366246 0.4914729 0.0011553996 986 226
0.11022817 -0.097291067 0.48576796 0.0011356544 1085 249
0.11290273 -0.09764763 0.4871968 0.0011524551 1001 230
0.11668528 -0.098929502 0.49321815 0.0011866345 972 223
0.11895867 -0.098907031 0.49271318 0.0010953308 1157 255
0.12220855 -0.099681899 0.49615765 0.0011055407 1057 243
0.12692101 -0.10159871 0.50525433 0.0012846111 830 190
0.12728046 -0.1000246 0.49696827 0.0013017356 824 189
0.12679812 -0.097857356 0.48573148 0.0012443681 872 200
0.12905571 -0.097843789 0.48517391 0.0012700746 860 197
0.13166992 -0.098096386 0.48591274 0.0014208994 773 177
0.13634865 -0.099852286 0.49406454 0.0014744251 663 152
0.1429904 -0.10296288 0.50886846 0.0014530336 703 161
0.14595735 -0.10336852 0.51025867 0.0012576991 853 196
0.14839621 -0.10339306 0.5097397 0.0012072624 914 210
0.15135992 -0.10377667 0.51096225 0.0011924821 933 214
0.15362339 -0.10367569 0.50977039 0.0011902784 948 217
0.15729763 -0.10451518 0.51317078 0.0013880095 814 187
0.1580928 -0.10344525 0.50717014 0.0014510944 727 167
0.15307321 -0.098659657 0.48296827 0.0012998264 855 196
0.1540186 -0.09780319 0.47801664 0.0012523053 941 216
0.15380928 -0.096249051 0.46964771 0.0011816547 980 225
0.15552545 -0.095927134 0.46728042 0.0011539469 1008 231
0.15736853 -0.095691495 0.46531197 0.0011254882 1030 236
0.16068317 -0.096344776 0.46763664 0.0011541353 989 227
0.16519284 -0.097686775 0.47326037 0.0011592085 977 224
0.16742653 -0.097664692 0.47223806 0.0010811228 1105 254
0.16985822 -0.097757168 0.47174394 0.0010187845 1240 255
0.17226475 -0.097832933 0.47114345 0.00098152168 1310 255
0.17457312 -0.097851679 0.4702445 0.00096151436 1365 255
0.17677613 -0.097811654 0.46904159 0.00096247077 1370 255
0.17929041 -0.097942688 0.46863797 0.00095110101 1371 255
0.18232219 -0.098349579 0.46953049 0.00096377381 1352 255
0.18467607 -0.098385252 0.46863022 0.00095678249 1366 255
0.18657026 -0.098178148 0.46656224 0.00098526978 1359 255
0.18834993 -0.097916514 0.46423039 0.00095963629 1354 255
0.19225441 -0.098752543 0.46708986 0.0010055072 1255 255
0.19532165 -0.099143863 0.46782973 0.0011043687 1119 255
0.19329616 -0.096971199 0.45649287 0.0010826153 1178 255
0.1931973 -0.095803998 0.4499335 0.0010055454 1254 255
0.19318564 -0.094706178 0.44373694 0.0010011352 1296 255
0.19455907 -0.094304457 0.44083577 0.00098358665 1303 255
0.19680227 -0.094328582 0.43995249 0.00098812417 1289 255
0.19950351 -0.094569303 0.44010594 0.0010106793 1248 255
0.20149726 -0.094473056 0.43872538 0.001003888 1263 255
0.20348138 -0.094374418 0.43737742 0.0010169421 1226 255
0.2051973 -0.094154827 0.43552002 0.0011320026 1142 255
0.20740011 -0.094160929 0.43476275 0.0012932452 860 197
0.21296994 -0.095679581 0.44103733 0.0018037324 500 114
0.21591857 -0.096001372 0.44184759 0.0021240946 392 90
0.21778682 -0.095841154 0.44050986 0.0020981373 409 94
0.21926729 -0.095515259 0.43848929 0.0021488022 403 92
0.22823058 -0.098422818 0.45138043 0.0022549159 377 86
nan nan nan 0 275 63
0.33587766 -0.14199705 0.65026975 0.0044419277 150 34
0.3435308 -0.14381869 0.6583246 0.004646983 136 31
0.35125211 -0.14563352 0.66647285 0.0047384286 133 30
0.35441658 -0.14554235 0.66602898 0.0052150581 134 30
-0.39769772 -0.14123985 0.67243391 0.028528037 21 4
-0.4038662 -0.14465357 0.68721789 0.028387709 20 4
nan nan nan 0 21 4
nan nan nan 0 18 4
-0.49861145 -0.18327701 0.86582071 0.02816402 22 5
-0.51937693 -0.19259523 0.90839082 0.023717383 28 6
-0.51098222 -0.19116993 0.90036893 0.025612129 25 5
-0.51104975 -0.19291343 0.90741664 0.025391601 25 5
-0.51177925 -0.19494064 0.91593105 0.031825885 25 5
nan nan nan 0 30 6
nan nan nan 0 28 6
nan nan nan 0 21 4
nan nan nan 0 26 5
nan nan nan 0 22 5
-0.37942809 -0.15284307 0.71610558 0.026768828 23 5
-0.37482625 -0.15245134 0.7144208 0.027937816 26 5
-0.37704796 -0.15485434 0.72597992 0.025063043 26 5
nan nan nan 0 35 8
nan nan nan 0 127 29
-0.20418993 -0.08639539 0.40600944 0.0023741263 326 74
-0.20218742 -0.086418591 0.40659598 0.0021638765 366 84
-0.19931096 -0.086064883 0.40547812 0.0021615094 396 91
-0.19650264 -0.085733563 0.40452817 0.0020184009 436 100
-0.19446054 -0.085733086 0.40519914 0.0018815488 452 103
-0.19244994 -0.085746631 0.40599349 0.0018365331 479 110
-0.1898486 -0.085494451 0.40557909 0.0018341718 522 120
-0.18708043 -0.085160859 0.40481877 0.0017350175 560 128
-0.18458538 -0.084945649 0.40465555 0.0016403901 566 130
-0.18244183 -0.084889218 0.40527964 0.0016484834 602 138
-0.17989169 -0.084640212 0.40500885 0.0015203679 677 155
-0.17697378 -0.084210575 0.40388829 0.0014701704 738 169
-0.17384885 -0.083671451 0.4022482 0.0012972367 820 188
-0.17135446 -0.083426826 0.40202641 0.0011199656 1043 239
-0.16885385 -0.083173394 0.40176287 0.0010365103 1198 255
-0.16793534 -0.083702497 0.40528482 0.0010882202 1148 255
-0.16637495 -0.083920546 0.40730733 0.0011782877 1005 231
-0.16508304 -0.084280983 0.41002214 0.001282068 832 191
-0.16443101 -0.084980942 0.41439229 0.0013867433 731 168
-0.162999 -0.085290246 0.4168573 0.0015788011 669 153
nan nan nan 0 456 104
nan nan nan 0 232 53
-0.27082536 -0.14721254 0.7242983 0.0027888226 264 60
-0.2694678 -0.14839493 0.73166281 0.0026991456 278 63
-0.26618654 -0.14853528 0.73386735 0.0029501093 281 64
-0.26300079 -0.14873339 0.73632288 0.0026041784 292 67
-0.26014826 -0.14912798 0.7397176 0.0027238759 286 65
-0.25751391 -0.14966029 0.74376404 0.0027067817 287 65
-0.25587237 -0.15079258 0.75076616 0.0027469001 274 63
-0.25180566 -0.15050755 0.75067753 0.0027731555 270 62
-0.24835007 -0.15058486 0.75235212 0.002694479 276 63
-0.24547055 -0.15101886 0.75577062 0.0032081124 251 57
-0.24322687 -0.15186273 0.76120842 0.0031902338 227 52
-0.23985083 -0.15201439 0.76314211 0.0033819203 211 48
-0.23348698 -0.15024805 0.75539303 0.0038658574 205 47
-0.22689953 -0.14828064 0.74656469 0.00331454 214 49
nan nan nan 0 271 62
-0.16143067 -0.10888422 0.54968512 0.0026569448 275 63
-0.15975429 -0.10951199 0.55355251 0.0041818796 172 39
nan nan nan 0 187 42
nan nan nan 0 262 60
nan nan nan 0 291 66
nan nan nan 0 306 70
-0.14275452 -0.10655309 0.54159588 0.0034413959 202 46
-0.14151189 -0.10753642 0.54712379 0.0031108703 225 51
nan nan nan 0 247 56
-0.1331981 -0.10501844 0.53527856 0.0022678068 342 78
-0.12929979 -0.10389499 0.52999717 0.0027583118 284 65
-0.11955919 -0.097941756 0.50002766 0.0017038482 531 122
-0.11462102 -0.095764056 0.48928151 0.0012716794 856 196
-0.11220986 -0.095652089 0.48906261 0.0012540009 871 200
-0.10862914 -0.094517872 0.48359507 0.0012539907 854 196
-0.10567791 -0.093894958 0.48072064 0.0011372986 1010 232
-0.10357828 -0.094018139 0.4816483 0.001129788 1023 235
-0.10172845 -0.094378486 0.48377672 0.0011869599 1010 232
-0.10008284 -0.094948873 0.48696935 0.0011663004 1004 230
-0.098570742 -0.095675208 0.49095067 0.0012011328 997 229
-0.096830249 -0.09620896 0.49393293 0.0011369004 1016 233
-0.094740763 -0.096413448 0.4952127 0.0011535592 993 228
-0.092296183 -0.096257724 0.49462923 0.0011432061 1010 232
-0.089870624 -0.096114434 0.49409631 0.0011286512 1022 234
-0.088219538 -0.096813567 0.4978829 0.0011273503 1023 235
-0.086504728 -0.097478412 0.50148398 0.001166724 968 222
-0.084346876 -0.097666897 0.50262469 0.0011514546 999 229
-0.082267471 -0.097959481 0.50429118 0.0011715532 999 229
-0.08017806 -0.098256871 0.5059728 0.0012107991 969 222
-0.078340583 -0.098890163 0.50937551 0.0012158451 910 209
-0.076060586 -0.098986775 0.51000535 0.0012484816 875 201
-0.073717125 -0.099004351 0.5102191 0.0012196723 900 206
-0.07110671 -0.098652698 0.5085209 0.0012035446 937 215
-0.068725593 -0.098606028 0.50838614 0.0012103703 959 220
-0.066404305 -0.098644935 0.50868481 0.0012139394 927 213
-0.064108744 -0.098726302 0.50919539 0.0012396006 925 212
-0.061748911 -0.098711133 0.50920105 0.0012750389 907 208
-0.059012327 -0.098068662 0.50596356 0.0012055004 916 210
-0.05675501 -0.098202519 0.50672501 0.0012456357 917 210
-0.054168642 -0.097754091 0.50447577 0.0012980157 903 207
-0.051951125 -0.097960897 0.50560242 0.0012271208 895 205
-0.049676649 -0.09807469 0.50624418 0.0012838903 918 211
-0.04761523 -0.098641098 0.50921774 0.0012229007 898 206
-0.045709368 -0.09960524 0.5142408 0.0013511069 841 193
-0.043526404 -0.10003801 0.51651698 0.001308048 803 184
-0.041763164 -0.1015414 0.5243178 0.001446655 779 179
-0.03982627 -0.10278135 0.53075552 0.0013526523 762 175
-0.037789162 -0.10390808 0.53660595 0.0014603924 732 168
-0.035391334 -0.10413133 0.53778768 0.0014964354 738 169
-0.032961052 -0.10428551 0.53860968 0.0014311053 743 170
-0.030410217 -0.10405234 0.53742838 0.0013445877 766 176
-0.027871281 -0.1038221 0.53625947 0.0013145002 805 185
-0.025345961 -0.10360275 0.53514427 0.0013576596 803 184
-0.02284883 -0.10346374 0.53444177 0.0013977351 790 181
-0.020332621 -0.10319431 0.53306359 0.0013253958 799 183
-0.017846361 -0.10302371 0.53219396 0.0014050836 791 181
-0.015376932 -0.10291141 0.5316236 0.0013993413 824 189
-0.012899655 -0.10269403 0.53050876 0.0013470096 828 190
-0.010563503 -0.10376123 0.53602856 0.0013672693 787 180
-0.0081894705 -0.10499423 0.54240346 0.0013966776 767 176
-0.005726845 -0.10567573 0.54592788 0.0014421749 711 163
-0.0032756226 -0.10780041 0.55690652 0.001603571 648 148
-0.00070570793 -0.10726071 0.55411953 0.0015345844 689 158
0.0018394266 -0.10677421 0.55160594 0.0014441712 747 171
0.0043681739 -0.10645285 0.54994404 0.0014307407 778 178
0.0068511129 -0.105661 0.54585034 0.0013168424 814 187
0.0093595088 -0.10558164 0.54543579 0.0012587897 847 194
0.011928218 -0.10607221 0.54796416 0.0012989034 823 189
0.014428765 -0.10589111 0.54702109 0.0013398521 830 190
0.016950523 -0.10589643 0.54703939 0.0012592511 855 196
0.019385183 -0.10542667 0.54460186 0.0012674159 843 193
0.021909747 -0.1054975 0.54495502 0.0012953621 836 192
0.024553323 -0.10606788 0.54788661 0.0013294892 813 186
0.027328152 -0.10704601 0.55292195 0.0013167806 795 182
0.029899873 -0.10712955 0.55333388 0.0013078671 797 183
0.032455299 -0.10714618 0.55339772 0.0012921134 816 187
0.034996543 -0.10711695 0.55322194 0.0012703078 840 193
0.037685968 -0.10751444 0.55524689 0.0012184475 919 211
0.040214662 -0.10743202 0.5547899 0.0011790766 955 219
0.042652279 -0.10713066 0.55319905 0.0011293816 1022 234
0.045113385 -0.10691898 0.5520677 0.0011700259 1069 245
0.04769031 -0.10698975 0.55239081 0.0011081795 1061 243
0.05024036 -0.10699612 0.55237687 0.0011371853 1004 230
0.052979246 -0.10738462 0.554331 0.0011665574 967 222
0.055514246 -0.1073431 0.55406004 0.0011790957 967 222
0.057802595 -0.10684931 0.55144966 0.0011874571 1006 231
0.060252208 -0.10668268 0.55052239 0.0011494188 984 226
0.062706895 -0.10653815 0.5497033 0.0011867271 939 215
0.064336367 -0.10505735 0.5419842 0.0012982773 818 188
0.065725088 -0.10330892 0.53288031 0.001297532 808 185
0.066686451 -0.10103914 0.52108347 0.0012514157 862 198
0.069096766 -0.10104632 0.52102423 0.0012510918 867 199
0.071041994 -0.10039575 0.51756632 0.0013057902 855 196
0.074737906 -0.10218109 0.52665675 0.0013247022 778 178
0.076921597 -0.10185153 0.52483654 0.0013717755 798 183
0.078445166 -0.10069475 0.51874632 0.0013184112 795 182
0.079366282 -0.098856181 0.50913835 0.00122815 881 202
0.07989274 -0.096646093 0.49761304 0.0012043985 974 223
0.081497699 -0.095827878 0.49324867 0.0011364181 1000 229
0.08371415 -0.095753655 0.49270493 0.0011558941 992 228
0.085720249 -0.095449157 0.49096605 0.0011996994 996 229
0.087752849 -0.095189117 0.48944557 0.0011811198 955 219
0.090056837 -0.095229141 0.48945662 0.0012176107 948 217
0.092880718 -0.095803462 0.49220023 0.001191109 939 215
0.094356373 -0.094992936 0.48781666 0.0011823477 972 223
0.096798442 -0.095170498 0.48849547 0.0012109523 974 223
0.0991598 -0.095262416 0.48872015 0.0012135628 984 226
0.10173084 -0.095547147 0.48991856 0.0011668584 1025 235
0.10423228 -0.095755488 0.49070886 0.0011477105 1004 230
0.1061221 -0.09540505 0.48862055 0.0011614079 998 229
0.10801296 -0.095070228 0.48659822 0.0011345524 1057 243
0.11046264 -0.095230915 0.48709601 0.0011576454 1070 246
0.11401654 -0.096317932 0.4923102 0.0012136451 965 221
0.11735241 -0.097181551 0.49635738 0.0012392532 907 208
0.11883491 -0.096506648 0.49252719 0.0010878649 1090 250
0.12198192 -0.097183444 0.49557605 0.001149372 1077 247
0.12641078 -0.098837309 0.50357729 0.0013044714 843 193
0.12713873 -0.097589962 0.49677458 0.0012940263 832 191
0.1271085 -0.095815845 0.48728341 0.0013269348 867 199
0.12905714 -0.095569685 0.48555106 0.0012626114 858 197
0.13094269 -0.095286138 0.48360962 0.0013670091 798 183
0.13556823 -0.096972197 0.49163431 0.0014507507 683 157
0.14228114 -0.10006987 0.50676531 0.0015137646 640 147
0.14477997 -0.10015044 0.50657427 0.0012808094 831 191
0.14738862 -0.10030317 0.50672168 0.0012213094 898 206
0.15035035 -0.10068746 0.50800943 0.001249735 936 215
0.15309533 -0.10091683 0.50848532 0.0012170724 931 214
0.15628964 -0.10143071 0.51036239 0.0012835 831 191
0.15755588 -0.10069669 0.50593489 0.0014214136 712 163
0.15594468 -0.098173216 0.49251321 0.0013412226 775 178
0.15435454 -0.095737346 0.47954205 0.0012786093 860 197
0.15360838 -0.093888186 0.46951705 0.0011760275 957 220
0.15534467 -0.093587637 0.46722752 0.0011506573 991 227
0.15699533 -0.093244731 0.46470574 0.0011473433 1029 236
0.16051896 -0.094008304 0.46766835 0.0011670139 989 227
0.16407324 -0.094768576 0.47057468 0.0011539799 996 229
0.16686085 -0.095071398 0.47117364 0.0011389368 1104 253
0.16934124 -0.095193416 0.47084698 0.0010143996 1224 255
0.17203459 -0.095430344 0.47106048 0.00098495092 1289 255
0.17467332 -0.09563119 0.47106749 0.00099815335 1270 255
0.17696597 -0.095639832 0.47010306 0.00098830671 1291 255
0.17928575 -0.095662743 0.46918726 0.00098455243 1347 255
0.18222871 -0.096013404 0.4698557 0.00096104824 1348 255
0.18459101 -0.096053243 0.46898144 0.00098393753 1349 255
0.18636689 -0.095790684 0.46661881 0.00095047237 1372 255
0.18820152 -0.095564291 0.46442613 0.00099004211 1354 255
0.19189295 -0.09627492 0.46677348 0.001043073 1223 255
0.19494352 -0.096651003 0.467482 0.0010965075 1134 255
0.19258542 -0.094368055 0.45535114 0.0010626293 1222 255
0.19152147 -0.092764579 0.4465484 0.0010013517 1290 255
0.19286637 -0.092351094 0.44350663 0.00099662389 1327 255
0.19508991 -0.092362911 0.44252685 0.00097939745 1316 255
0.1973789 -0.092405125 0.44171283 0.0010084856 1296 255
0.19949161 -0.092364773 0.4405309 0.0010076514 1248 255
0.2017327 -0.092384093 0.43966699 0.0010162652 1227 255
0.20341967 -0.092151977 0.43764794 0.0010516685 1208 255
0.20576839 -0.092221409 0.43710864 0.0011214742 1064 244
0.20723145 -0.091896608 0.43475509 0.0013288467 774 177
0.21456803 -0.094155997 0.44466949 0.0019778979 431 99
0.21559146 -0.093627006 0.44146574 0.0021235994 434 99
0.21751204 -0.093494453 0.44020638 0.0019035581 440 101
0.22526649 -0.095846795 0.45070833 0.0021819251 384 88
nan nan nan 0 286 65
nan nan nan 0 167 38
0.33903793 -0.14000018 0.65654629 0.0054319059 131 30
0.34409463 -0.14070506 0.65950876 0.0056567034 124 28
0.34946451 -0.14152317 0.66313004 0.0057095308 112 25
0.35489941 -0.14235173 0.66693127 0.0058194227 106 24
nan nan nan 0 18 4
-0.39963901 -0.13973185 0.67953074 0.035386991 18 4
nan nan nan 0 21 4
nan nan nan 0 26 5
nan nan nan 0 24 5
-0.52040017 -0.18838057 0.90968245 0.022883076 27 6
-0.51814544 -0.18923493 0.91254014 0.031237887 27 6
-0.52038628 -0.19176129 0.92359149 0.030171964 27 6
-0.52152848 -0.19392492 0.93302912 0.023800245 27 6
nan nan nan 0 30 6
nan nan nan 0 24 5
-0.48183143 -0.18417431 0.88428503 0.02473931 23 5
nan nan nan 0 30 6
nan nan nan 0 22 5
-0.37853387 -0.14885275 0.71446079 0.029031366 25 5
-0.38128078 -0.15138468 0.72682595 0.039464183 22 5
-0.37803051 -0.15156174 0.72803473 0.032394815 24 5
nan nan nan 0 36 8
-0.21316825 -0.087168977 0.41938177 0.0040152939 165 37
-0.20363376 -0.084108882 0.40509415 0.0023632799 365 83
-0.20138045 -0.084024556 0.40519598 0.0022800574 383 88
-0.1984181 -0.083639599 0.40391496 0.0020926478 420 96
-0.19632021 -0.083614834 0.40443596 0.0018667701 455 104
-0.19422826 -0.083592102 0.40502688 0.0018028433 483 111
-0.19188963 -0.083461583 0.40514949 0.0017909884 501 115
-0.18971631 -0.083400965 0.4056592 0.0016546167 553 127
-0.18577462 -0.082553208 0.40237463 0.0015906063 585 134
-0.18443827 -0.082857288 0.40473625 0.001547836 616 141
-0.18199876 -0.082667038 0.40471557 0.0014467809 685 157
-0.1793694 -0.082385324 0.40426743 0.001409144 760 174
-0.17663229 -0.082047172 0.40355498 0.0012739295 841 193
-0.17376597 -0.081640586 0.40251148 0.0012424702 966 222
-0.17151825 -0.081518561 0.40287396 0.0011097881 1089 250
-0.16967931 -0.081590243 0.40419781 0.0010933316 1097 252
-0.16796589 -0.081724696 0.40583536 0.001130912 1029 236
-0.1664342 -0.081951857 0.40793398 0.0013216671 857 197
-0.16691099 -0.083185539 0.4150531 0.0013844204 741 170
-0.16513325 -0.083312124 0.41665411 0.0015299668 650 149
-0.16622709 -0.084908687 0.42561349 0.0017815486 509 117
nan nan nan 0 299 68
nan nan nan 0 164 37
-0.27014822 -0.14334859 0.72331685 0.0039128629 172 39
-0.26795989 -0.14405151 0.72839373 0.0035837216 194 44
-0.26598218 -0.14488783 0.73412406 0.0033791612 207 47
-0.26322603 -0.14531691 0.73776555 0.0033259019 211 48
-0.26042506 -0.14573264 0.74130714 0.0031240904 230 52
-0.25729787 -0.14597479 0.74393117 0.0031033375 230 52
-0.25377515 -0.14599618 0.74539065 0.0033535247 226 51
-0.25169918 -0.14686234 0.75112909 0.0031038832 230 52
-0.24720173 -0.14632024 0.74962509 0.003003455 243 55
-0.24128948 -0.14491256 0.74362761 0.002976883 270 62
-0.23834327 -0.14527081 0.74664146 0.0036101018 205 47
-0.23499842 -0.14539325 0.74840528 0.0040873899 163 37
-0.23286633 -0.14628127 0.75407624 0.0040225354 181 41
nan nan nan 0 213 48
nan nan nan 0 262 60
nan nan nan 0 254 58
nan nan nan 0 216 49
nan nan nan 0 259 59
nan nan nan 0 305 70
-0.1449884 -0.10201846 0.53049731 0.0029751812 273 62
nan nan nan 0 279 64
-0.14239912 -0.10375744 0.54063845 0.0027404418 302 69
-0.14208199 -0.10539926 0.54971427 0.0025352912 295 67
-0.13491571 -0.10192712 0.53208596 0.0020422796 400 91
-0.13120914 -0.10098747 0.52763498 0.0019820509 415 95
-0.12808464 -0.10046846 0.52535385 0.002735171 305 70
-0.11941048 -0.095491171 0.49971694 0.0015285418 625 143
-0.11458975 -0.093458734 0.48944354 0.0012232028 894 205
-0.11211736 -0.093297958 0.48894548 0.0012290204 883 203
-0.10844278 -0.092109419 0.48303905 0.0012436842 875 201
-0.10540088 -0.091419354 0.47972345 0.00112964 1026 235
-0.10332032 -0.091551289 0.4807035 0.0011458164 1008 231
-0.10115375 -0.091611169 0.48129028 0.0011152627 1044 240
-0.099686891 -0.092321761 0.48528305 0.0011713032 967 222
-0.097704813 -0.09257701 0.4868705 0.0012628399 953 219
-0.096838415 -0.093926467 0.49420261 0.0011816846 954 219
-0.095181234 -0.094555728 0.49773654 0.0012409418 936 215
-0.092951499 -0.094633333 0.49835509 0.001208193 953 219
-0.089991473 -0.093952432 0.49496529 0.0011327405 1024 235
-0.087867804 -0.094131954 0.49609527 0.0011370335 1014 233
-0.086330257 -0.094965838 0.50066429 0.0011608963 981 225
-0.084410563 -0.095413767 0.50318956 0.0011644751 981 225
-0.08182659 -0.095114909 0.5017662 0.0011528953 1016 233
-0.079754643 -0.095411167 0.50347203 0.0011665118 975 224
-0.077944428 -0.096047744 0.50696522 0.0011638664 972 223
-0.076084234 -0.096660279 0.51032388 0.0012178177 909 209
-0.073565841 -0.096449047 0.50932497 0.0012057935 913 209
-0.071061112 -0.096242353 0.50834113 0.0011522493 994 228
-0.068535641 -0.095992491 0.50712073 0.0012145112 961 220
-0.066159904 -0.09594211 0.50694638 0.0011829464 951 218
-0.06370303 -0.095766045 0.50610059 0.0011771863 951 218
-0.061274495 -0.095620811 0.50541073 0.0012204557 956 219
-0.058866806 -0.095497899 0.50483221 0.0012475165 948 217
-0.056373473 -0.095220201 0.50342935 0.0012565899 938 215
-0.05422559 -0.095527209 0.50511229 0.0012596583 899 206
-0.05191445 -0.095561266 0.50534683 0.0012856018 897 206
-0.049527433 -0.095452286 0.50482023 0.0012165159 908 208
-0.047367312 -0.095791399 0.50665891 0.0012604098 871 200
-0.045619946 -0.09704376 0.5133242 0.0013607955 836 192
-0.043489739 -0.097574182 0.51616776 0.0013004499 817 187
-0.041202065 -0.097792283 0.5173555 0.0013069279 810 186
-0.039659195 -0.099913552 0.52860898 0.0013719202 755 173
-0.037774142 -0.10139406 0.53647012 0.0013841412 742 170
-0.035396539 -0.10166727 0.5379411 0.001414613 710 163
-0.032903377 -0.10162468 0.53773832 0.0013618458 758 174
-0.030451372 -0.10171266 0.5382238 0.0014837221 757 174
-0.027885649 -0.10140271 0.53660119 0.0014295968 786 180
-0.025288515 -0.10090709 0.53399378 0.0013990885 804 184
-0.022710448 -0.10038891 0.5312649 0.0012764292 839 192
-0.020315003 -0.1006503 0.53265965 0.0014036819 798 183
-0.017826362 -0.10045837 0.53165364 0.00142838 780 179
-0.015381592 -0.10049187 0.53183925 0.0013254705 784 180
-0.012937317 -0.10054192 0.53211093 0.0014235486 763 175
-0.010473549 -0.10042848 0.53151596 0.0013419569 792 182
-0.0081232432 -0.10166579 0.53806883 0.0013398017 772 177
-0.005722174 -0.10307581 0.54553449 0.0014275935 694 159
-0.0032780296 -0.10531136 0.55736828 0.0015060845 642 147
-0.00071128504 -0.10553468 0.55855113 0.0015648213 658 151
0.0018622491 -0.10552553 0.55850244 0.0014511175 740 170
0.004419121 -0.10513061 0.55641085 0.0013523209 761 174
0.0069969357 -0.10534097 0.5575217 0.0013499251 754 173
0.0095195211 -0.10483016 0.5548144 0.0013092582 795 182
0.01207561 -0.10482646 0.5547899 0.0013304668 809 186
0.014672702 -0.10511782 0.55632544 0.0013547904 786 180
0.017272424 -0.10533854 0.55748588 0.0013277067 780 179
0.019845 -0.105358 0.55757952 0.0013408546 778 178
0.022436228 -0.10546065 0.55811173 0.0013713241 768 176
0.025004473 -0.10544529 0.55801749 0.0014260868 729 167
0.027557211 -0.10537348 0.55762279 0.0013849157 730 167
0.030008204 -0.10495806 0.55540746 0.0013600705 753 173
0.03251652 -0.10479268 0.55451322 0.0013050413 799 183
0.035040744 -0.10469893 0.55399537 0.0013127874 828 190
0.037714057 -0.10503313 0.5557391 0.0012563012 854 196
0.040291961 -0.10507599 0.55593836 0.001224459 893 205
0.042862386 -0.1050954 0.55601019 0.00122042 918 211
0.045404788 -0.10504778 0.55572379 0.001190601 937 215
0.047913816 -0.10493217 0.55507386 0.0012431787 913 209
0.050451476 -0.1048878 0.55479676 0.0012038874 919 211
0.053074386 -0.1050164 0.55543005 0.0012152058 906 208
0.055716567 -0.10516951 0.55618805 0.0012393942 870 200
0.058528434 -0.10561537 0.55848873 0.0012628947 842 193
0.061032798 -0.10549214 0.55777425 0.0013667309 815 187
0.063075617 -0.10461338 0.55305988 0.0013261675 778 178
0.064233124 -0.1023917 0.54124177 0.001319278 793 182
0.064653993 -0.099205986 0.52432519 0.0012352018 878 201
0.066681266 -0.09862607 0.52117705 0.0012975166 895 205
0.069024399 -0.098537445 0.52061856 0.0012869517 898 206
0.071775474 -0.099017531 0.52305698 0.0012919096 848 194
0.07436458 -0.099250242 0.52417976 0.0013593811 795 182
0.077359259 -0.099992499 0.5279842 0.0015058378 722 166
0.079696648 -0.099865749 0.52719039 0.0013713479 734 168
0.081486039 -0.099080198 0.52291059 0.0013045558 798 183
0.082118616 -0.096973807 0.51165408 0.0012300451 889 204
0.082198188 -0.094350591 0.49766767 0.0011623719 979 225
0.083706751 -0.09346582 0.49284616 0.0012012259 987 226
0.085783139 -0.093245186 0.49151778 0.0012204314 1001 230
0.088076502 -0.093265705 0.49144983 0.0011796546 979 225
0.090615459 -0.093538694 0.49269992 0.0012174374 952 218
0.092131577 -0.092768379 0.48844343 0.001178586 954 219
0.094746731 -0.093115099 0.49005648 0.0011955451 931 214
0.096821919 -0.092927344 0.4888432 0.0012053559 944 217
0.099181861 -0.093015209 0.48906642 0.0011455988 1001 230
0.10146827 -0.093031757 0.48889992 0.0011803141 1040 239
0.10350449 -0.092823192 0.48753625 0.0011100019 1056 242
0.10567085 -0.092737749 0.48680475 0.00111914 1041 239
0.10798623 -0.09278395 0.48674855 0.0011807192 1025 235
0.11111203 -0.0935103 0.49024123 0.0011613519 972 223
0.11344015 -0.093549602 0.49011225 0.0012149223 967 222
0.11500968 -0.092974104 0.48674649 0.0011462298 1005 231
0.11851253 -0.093953572 0.49150139 0.0011772688 998 229
0.12196747 -0.094858602 0.49584031 0.0012033257 1016 233
0.12503195 -0.095431924 0.49841917 0.0012398934 874 200
0.12672973 -0.094960175 0.49551898 0.001390232 810 186
0.12693292 -0.093405589 0.48695692 0.0012670259 877 201
0.1279584 -0.092500232 0.48177028 0.0012711925 887 203
0.12968083 -0.092121318 0.47931045 0.0013057051 844 194
0.13393624 -0.093524031 0.48609245 0.0014083987 727 167
0.14207946 -0.097549058 0.50645 0.0015525359 613 140
0.14445175 -0.097544573 0.50583953 0.0014051092 769 176
0.14725062 -0.097823605 0.50667232 0.0012967266 883 203
0.14999866 -0.098060519 0.50725782 0.0011869342 936 215
0.15275915 -0.098298013 0.50781691 0.001235812 907 208
0.15690053 -0.099403009 0.5128212 0.0013492854 802 184
0.15998952 -0.09981779 0.5142259 0.0016774387 605 139
0.15926558 -0.097876914 0.50347888 0.0015129851 646 148
0.15625182 -0.094606906 0.48590758 0.0014045462 743 170
0.15328155 -0.091458023 0.46898291 0.0012645095 897 206
0.15296459 -0.08995989 0.46053517 0.0011523349 1032 237
0.15566231 -0.090252005 0.46123636 0.0011916673 1020 234
0.16015382 -0.091561519 0.46709624 0.0011555033 977 224
0.16334817 -0.09210363 0.46899793 0.0011729661 959 220
0.16661894 -0.09267351 0.47100419 0.0011280444 1086 249
0.16878842 -0.092623822 0.4698306 0.0010498327 1218 255
0.17091873 -0.092554227 0.46853188 0.0010437322 1260 255
0.17464815 -0.093341082 0.47153684 0.0010334734 1233 255
0.17699015 -0.093375728 0.47070974 0.0010691138 1223 255
0.17957193 -0.093534395 0.47048363 0.00099256181 1286 255
0.18223661 -0.093731724 0.4704276 0.00097864016 1308 255
0.1844265 -0.093682967 0.46911651 0.00097490411 1317 255
0.18635333 -0.093503423 0.46713701 0.00099656335 1353 255
0.18888809 -0.093629569 0.46667218 0.00098633708 1300 255
0.19189864 -0.093985721 0.4673382 0.0010502476 1185 255
0.19463687 -0.094201654 0.46729392 0.0010788873 1123 255
0.1934924 -0.092555314 0.45802653 0.001037049 1191 255
0.19206497 -0.090813138 0.44832763 0.00098688179 1287 255
0.193222 -0.090318754 0.44482255 0.00097888627 1339 255
0.19533779 -0.090278625 0.44357371 0.0010017474 1306 255
0.19791859 -0.090451911 0.44339022 0.0010664407 1217 255
0.20023394 -0.090501398 0.44262174 0.0010542466 1190 255
0.20132552 -0.090002708 0.43920785 0.0010197788 1231 255
0.20200197 -0.089331202 0.43500003 0.0010277813 1208 255
0.20465568 -0.089539096 0.43512261 0.0011543672 986 226
0.20804377 -0.090060502 0.43681145 0.0016104903 615 141
0.21560282 -0.092357725 0.44714448 0.0018770483 455 104
nan nan nan 0 393 90
nan nan nan 0 292 67
nan nan nan 0 221 50
nan nan nan 0 154 35
0.33500293 -0.13638143 0.65587413 0.0059507703 120 27
0.3388671 -0.13659838 0.65639246 0.0062844628 107 24
0.34343389 -0.13709159 0.65836525 0.0064254175 96 22
0.34866753 -0.13783891 0.6616872 0.0071650087 79 18
0.3588376 -0.14050482 0.67434841 0.008455148 69 15
-0.31552616 -0.10672174 0.53269875 0.017636798 35 8
nan nan nan 0 18 4
-0.42158508 -0.14504717 0.72111535 0.034257326 19 4
-0.42222154 -0.14652631 0.72716421 0.030224046 21 4
nan nan nan 0 21 4
nan nan nan 0 21 4
-0.5129168 -0.18275702 0.90291476 0.033660755 23 5
nan nan nan 0 26 5
-0.52657747 -0.19102727 0.94173872 0.023704119 27 6
-0.49854365 -0.18251243 0.89903253 0.024752526 27 6
-0.49504364 -0.18290488 0.90040416 0.024959045 24 5
-0.4860557 -0.18125813 0.89191335 0.02161241 30 6
-0.48437542 -0.18233117 0.89698416 0.020597219 31 7
nan nan nan 0 28 6
nan nan nan 0 21 4
nan nan nan 0 20 4
nan nan nan 0 23 5
nan nan nan 0 35 8
-0.21259965 -0.084816329 0.41843569 0.0038776982 169 38
-0.20278373 -0.081715174 0.4036015 0.0020743979 397 91
-0.20074984 -0.081718728 0.40415689 0.0021379271 409 94
-0.19815852 -0.081493109 0.40364584 0.0019487576 431 99
-0.19572398 -0.08132796 0.40349528 0.0018452223 483 111
-0.19375777 -0.081355974 0.40436071 0.0017954197 510 117
