# .PCD v0.7 - Point Cloud Data file format
VERSION 0.7
FIELDS x y z noise intensity gray
SIZE 4 4 4 4 2 1
TYPE F F F F U U
COUNT 1 1 1 1 1 1
WIDTH 976
HEIGHT 1
VIEWPOINT 0 0 0 1 0 0 0
POINTS 976
DATA ascii
-0.12266956 -0.11527622 0.47973496 0.0012267004 899 215
-0.1175608 -0.11254901 0.46889085 0.0012154205 908 218
-0.11368702 -0.11092238 0.46259248 0.001146509 1042 250
-0.11031112 -0.10972756 0.45806354 0.0010698771 1117 255
-0.1075207 -0.10907919 0.45578966 0.0010368058 1195 255
-0.10438585 -0.10804798 0.45189145 0.0010503514 1188 255
-0.10190818 -0.10766838 0.45069563 0.0010086349 1247 255
-0.099687129 -0.10754958 0.45057297 0.0010295586 1284 255
-0.096460193 -0.10631697 0.44576302 0.0010106828 1281 255
-0.094353169 -0.10629152 0.44599453 0.0010506463 1173 255
-0.092299521 -0.10632641 0.44646394 0.0011541324 1030 247
-0.091797255 -0.10819137 0.45460856 0.0012212717 935 224
-0.089729436 -0.10825576 0.45517838 0.0012192426 913 219
nan nan nan 0 783 188
nan nan nan 0 633 151
nan nan nan 0 494 118
-0.097436473 -0.12983882 0.54719996 0.0018847967 465 111
-0.092658654 -0.12678447 0.53460068 0.0015430413 621 149
-0.090144239 -0.12674414 0.53469008 0.0014610189 678 162
-0.087657243 -0.12674116 0.53492343 0.0014176453 712 170
-0.085536525 -0.12728304 0.53744453 0.0014282325 693 166
-0.083223648 -0.12756294 0.53884858 0.0014333908 693 166
-0.080955796 -0.12793137 0.54061562 0.0014119877 708 170
-0.078778021 -0.12847021 0.54309285 0.0014797637 664 159
-0.076821424 -0.12941729 0.54728687 0.0016713414 550 132
-0.074193627 -0.12925969 0.54679978 0.0017607389 504 121
-0.070860364 -0.12781842 0.54087001 0.0016604553 550 132
-0.066821329 -0.12495174 0.52889335 0.0015415 622 149
-0.063754715 -0.12375442 0.5239687 0.001507276 660 158
-0.060619794 -0.12232451 0.51804757 0.0014494426 679 163
-0.059306379 -0.12460384 0.5278278 0.0016244267 633 151
-0.057469014 -0.12593088 0.53356963 0.0016774167 585 140
-0.05622416 -0.12873371 0.54556042 0.0016734974 553 132
-0.054936074 -0.13169639 0.55822593 0.0017749149 534 128
-0.05236005 -0.13171148 0.5583927 0.0016575697 590 141
-0.049579479 -0.1311869 0.55626392 0.0015708746 635 152
-0.046655998 -0.13020608 0.55219287 0.0014755318 671 161
-0.044121463 -0.13026004 0.55250305 0.0014441982 690 165
-0.041527186 -0.13013339 0.55204117 0.0015249843 694 166
-0.038914125 -0.12992744 0.55123681 0.001392348 728 174
-0.036306705 -0.12971281 0.55038977 0.0014115372 717 172
-0.03378991 -0.129814 0.55087739 0.0013533188 756 181
-0.031282369 -0.12997009 0.55159301 0.0013457538 797 191
-0.028753912 -0.13005932 0.55201989 0.001280498 831 199
-0.026182791 -0.12995411 0.55161697 0.0012898188 897 215
-0.023628773 -0.12992027 0.5515123 0.0011939741 930 223
-0.021088956 -0.12996578 0.55173993 0.0011773991 955 229
-0.018567685 -0.13015381 0.55256844 0.0012813774 858 206
-0.016016331 -0.13015725 0.55260915 0.0013416214 774 185
-0.01344685 -0.12998679 0.55190742 0.0013677821 744 178
-0.010868344 -0.12962897 0.55040628 0.0014120719 749 179
-0.0082081724 -0.12778139 0.54257542 0.0013149409 799 191
-0.0056864475 -0.1274126 0.54101968 0.0013106667 799 191
-0.0031752014 -0.12688473 0.53878468 0.0013450312 801 192
-0.00068603933 -0.1266124 0.53763115 0.0012835053 828 198
0.0018066211 -0.12733932 0.54071695 0.0013347187 784 188
0.0043199719 -0.12783502 0.54281741 0.0013621037 756 181
0.0068763224 -0.12877198 0.54678774 0.0015489899 666 159
0.0094247926 -0.12909774 0.548159 0.0014697654 653 156
0.011913096 -0.1286359 0.5461821 0.0015379204 682 163
0.014422695 -0.12852521 0.54569256 0.0014873409 688 165
0.016958572 -0.12864681 0.5461852 0.0014352911 695 166
0.019506529 -0.12881668 0.54687876 0.0014234112 700 168
0.022032615 -0.12881972 0.5468598 0.0014155433 710 170
0.024342645 -0.12768884 0.54202324 0.0014167362 732 175
0.026779899 -0.12737398 0.54064649 0.0014092529 709 170
0.029007012 -0.12619857 0.53561312 0.0014766657 657 157
0.031689446 -0.1270332 0.53910631 0.0015878762 625 150
0.034279771 -0.12740384 0.5406248 0.0016660902 554 133
0.036604054 -0.12680252 0.53801382 0.0015447899 624 149
0.038880583 -0.12612279 0.53506553 0.0014620974 670 160
0.041379709 -0.12620324 0.53533715 0.0014733977 681 163
0.043923166 -0.12640218 0.53610528 0.0013816583 737 176
0.046618588 -0.12699386 0.53853256 0.0015026357 708 170
0.049065191 -0.12688208 0.53797007 0.0013853334 754 181
0.051193036 -0.12599657 0.5341211 0.0012393296 872 209
0.053565443 -0.12576678 0.53304589 0.0012215804 972 233
0.055856079 -0.12537368 0.5312717 0.0011264137 1026 246
0.058226041 -0.12518427 0.53035367 0.0011228141 1035 248
0.06060328 -0.1250252 0.52955663 0.0011398419 1004 241
0.062979653 -0.12487677 0.52879679 0.0011832168 1010 242
0.065526679 -0.12506516 0.52945465 0.0011623106 966 231
0.068009079 -0.12512107 0.52954233 0.001188807 977 234
0.07048358 -0.12515904 0.52954471 0.0011839919 939 225
0.072920874 -0.12513062 0.52925646 0.0011907078 942 226
0.075273007 -0.1249627 0.52836812 0.0012472728 936 224
0.077359356 -0.12437803 0.52570826 0.0011987821 936 224
0.079617463 -0.12409678 0.52432132 0.0012696707 900 216
0.082027175 -0.12406152 0.52396286 0.0012146703 895 214
0.084496625 -0.12411604 0.52397156 0.0012692844 841 201
0.087454297 -0.12486456 0.5268963 0.0013615073 749 179
nan nan nan 0 605 145
0.099085189 -0.13397042 0.5647738 0.0017752312 499 119
0.10130469 -0.13343421 0.56221896 0.0016039266 582 139
0.10405318 -0.1336042 0.56262517 0.0015842591 633 151
0.10624579 -0.13306962 0.5600493 0.0015559462 675 162
0.10760252 -0.13153885 0.55326939 0.0014682085 716 171
0.10953675 -0.13076918 0.54968005 0.0013844639 764 183
0.11186432 -0.13049355 0.54815292 0.0013248089 781 187
0.1143062 -0.13036062 0.54720855 0.0013208007 787 188
0.1169098 -0.1304139 0.54702765 0.0013344459 773 185
0.11902259 -0.12992913 0.54457229 0.0014107255 772 185
0.121175 -0.12950699 0.54236299 0.0013052613 808 194
0.12356977 -0.12935591 0.54127085 0.0013137677 803 192
0.12528642 -0.1285153 0.53727645 0.0012932131 826 198
0.12728588 -0.12799221 0.5345937 0.0012511582 860 206
0.12942858 -0.12763062 0.53256738 0.0012523243 875 210
0.13186869 -0.12757045 0.53177863 0.0012277864 892 214
0.13420787 -0.1274167 0.53057808 0.0013030735 879 211
0.13706809 -0.1277542 0.53139925 0.0013073927 875 210
0.13953857 -0.12772284 0.53066117 0.0012446776 867 208
0.14129327 -0.12704898 0.527233 0.0012528973 855 205
0.14363439 -0.12691662 0.52603137 0.001286597 821 197
0.14603408 -0.12683964 0.52503544 0.001259553 852 204
0.1483974 -0.12673417 0.52389729 0.0013516154 825 198
0.15106514 -0.1268879 0.52380478 0.0013489241 799 191
0.15454364 -0.12770662 0.52642554 0.001335333 773 185
0.15717967 -0.12781413 0.52608269 0.0015824218 628 150
0.16318677 -0.13061653 0.53678703 0.0022464488 341 81
nan nan nan 0 263 63
0.21116418 -0.16387486 0.67128015 0.0034429377 198 47
0.21582009 -0.16497795 0.67464644 0.0022555194 348 83
0.22010389 -0.16576819 0.67668599 0.0032247757 231 55
0.22042063 -0.16359115 0.66658938 0.0033706329 234 56
0.229993 -0.16824737 0.68428469 0.0022893227 341 81
0.23332614 -0.16827224 0.68307567 0.0025024093 332 79
nan nan nan 0 93 22
nan nan nan 0 73 17
nan nan nan 0 92 22
nan nan nan 0 124 29
0.25421321 -0.1712302 0.68797618 0.0060079289 103 24
0.26058558 -0.1732347 0.6945197 0.0048263161 147 35
0.26241982 -0.17220956 0.68889207 0.0039376784 187 44
0.26725194 -0.17315279 0.69112712 0.006511576 92 22
nan nan nan 0 73 17
nan nan nan 0 179 42
0.26783597 -0.167161 0.66273582 0.0028070137 257 61
0.27640116 -0.17042132 0.67415363 0.0028970302 247 59
0.2771849 -0.16886327 0.66651326 0.002839762 291 69
0.27819434 -0.16747789 0.65960479 0.0035032837 191 45
nan nan nan 0 172 41
0.29383165 -0.17281237 0.67775136 0.0030251252 260 62
0.30418864 -0.17686425 0.69225031 0.002676185 271 65
nan nan nan 0 108 25
nan nan nan 0 64 15
0.2758204 -0.15506709 0.60362411 0.0066294465 107 25
nan nan nan 0 119 28
nan nan nan 0 90 21
nan nan nan 0 58 13
0.32112446 -0.17291345 0.66938275 0.0053983689 110 26
0.32238975 -0.17178124 0.66433853 0.0037319791 173 41
0.33372441 -0.17598231 0.68002516 0.0075759161 86 20
0.33313209 -0.17387237 0.67143744 0.0067589795 88 21
0.33363926 -0.17237318 0.66533768 0.0052070343 119 28
0.313481 -0.16033442 0.61869437 0.0061613666 113 27
0.31347564 -0.15873992 0.61248076 0.0044247634 158 37
0.33435056 -0.16764627 0.64689988 0.0030065263 269 64
0.33849815 -0.16807364 0.64872217 0.0023554564 341 81
0.34592679 -0.17010622 0.65686077 0.0031835034 217 52
0.36572263 -0.17812333 0.6882472 0.0055875769 108 25
-0.33759007 -0.14272697 0.57496083 0.0098363496 61 14
nan nan nan 0 64 15
nan nan nan 0 76 18
nan nan nan 0 41 9
-0.40203124 -0.17592105 0.70231289 0.030832669 18 4
-0.39752957 -0.17548685 0.69919431 0.040432796 18 4
-0.3978703 -0.17720155 0.70471752 0.027926566 22 5
-0.39028424 -0.175385 0.69629073 0.021365443 25 6
-0.37998763 -0.1723064 0.68298244 0.022494655 31 7
nan nan nan 0 57 13
nan nan nan 0 119 28
nan nan nan 0 70 16
nan nan nan 0 50 12
nan nan nan 0 94 22
nan nan nan 0 128 30
nan nan nan 0 68 16
nan nan nan 0 76 18
nan nan nan 0 89 21
nan nan nan 0 55 13
nan nan nan 0 57 13
-0.34823191 -0.17718783 0.69790947 0.0087176152 70 16
-0.34124801 -0.17541921 0.69138855 0.0048830896 126 30
nan nan nan 0 107 25
nan nan nan 0 95 22
nan nan nan 0 97 23
nan nan nan 0 77 18
nan nan nan 0 116 27
nan nan nan 0 89 21
-0.31593007 -0.1749973 0.69603366 0.012032846 47 11
nan nan nan 0 82 19
-0.22255856 -0.12607071 0.50333238 0.0026946878 291 69
-0.21668115 -0.12414776 0.49665925 0.0021175637 377 90
nan nan nan 0 457 109
nan nan nan 0 298 71
nan nan nan 0 96 23
nan nan nan 0 44 10
nan nan nan 0 84 20
nan nan nan 0 218 52
nan nan nan 0 164 39
nan nan nan 0 246 59
-0.19401698 -0.12394342 0.5058341 0.0027665838 257 61
-0.20574401 -0.13313581 0.5445556 0.0035751078 186 44
nan nan nan 0 155 37
-0.18569733 -0.12335631 0.50675035 0.0029628894 258 61
-0.18100354 -0.12185708 0.50165111 0.0023747932 359 86
-0.17566165 -0.11987467 0.49451357 0.0021142401 406 97
-0.17275305 -0.11952088 0.49405411 0.0018042689 486 116
-0.17356163 -0.12176502 0.504327 0.0024637529 309 74
nan nan nan 0 385 92
-0.15410274 -0.11123453 0.46246737 0.0013247684 785 188
-0.14856982 -0.10881145 0.45321861 0.0010451557 1178 255
-0.14592123 -0.10846019 0.45255539 0.0010752276 1192 255
-0.14374657 -0.1084559 0.45331419 0.0010472476 1226 255
-0.14134476 -0.10827748 0.45332062 0.0011041395 1141 255
-0.13917892 -0.10827708 0.45404768 0.0011760565 958 230
-0.13682994 -0.10813194 0.45414346 0.0012513081 959 230
-0.13477109 -0.10821509 0.45517439 0.0012367852 960 230
-0.13286093 -0.10842232 0.4567059 0.0011892765 983 236
-0.13143757 -0.10904024 0.45994934 0.0011955148 943 226
-0.13136712 -0.11082033 0.46808591 0.0012526187 872 209
-0.13636562 -0.11701103 0.49487323 0.0013816823 791 189
-0.13395208 -0.11694682 0.49521661 0.0011454839 997 239
-0.13128214 -0.11665249 0.49456036 0.0010597812 1135 255
-0.12862833 -0.11636209 0.49389517 0.0010330032 1188 255
-0.12605982 -0.1161396 0.49349362 0.0011118539 1049 251
-0.12039956 -0.11300684 0.48068908 0.0012477639 872 209
-0.11593977 -0.11090253 0.47221562 0.0012226334 900 216
-0.11148043 -0.10871658 0.4633567 0.0011110988 1046 251
-0.10833116 -0.10774668 0.45964906 0.0010090045 1249 255
-0.10516907 -0.1067244 0.45569205 0.0010316076 1281 255
-0.10226488 -0.10592692 0.45267063 0.0010045692 1313 255
-0.10000449 -0.10577665 0.4523949 0.00097252929 1319 255
-0.096756577 -0.1045528 0.44750661 0.00099901401 1300 255
-0.094140962 -0.10397321 0.44535434 0.001011014 1265 255
-0.091950491 -0.10384759 0.44512931 0.0010121348 1242 255
-0.088746719 -0.10254533 0.43984202 0.0010024618 1273 255
-0.086763024 -0.10262459 0.44046295 0.0010580648 1158 255
-0.085597433 -0.10369878 0.44534367 0.0011221119 1048 251
-0.086461231 -0.10734592 0.46127266 0.0012768324 845 202
nan nan nan 0 636 152
nan nan nan 0 527 126
-0.095185027 -0.1276878 0.54954106 0.0018948428 457 109
-0.091987357 -0.12679985 0.54597491 0.0016909306 541 129
-0.087708719 -0.12432925 0.53557432 0.0014451207 683 163
-0.085355207 -0.12452302 0.53663403 0.0014571823 725 174
-0.083119713 -0.12490577 0.53849685 0.0014203073 707 169
-0.080663495 -0.1249703 0.53897691 0.0014548876 684 164
-0.079496659 -0.12710042 0.54835761 0.0017076054 590 141
-0.07760039 -0.1281665 0.55314136 0.0018381474 511 122
-0.073991373 -0.12637998 0.5456022 0.001693265 542 130
-0.06949956 -0.12290593 0.53076094 0.0015507622 612 146
-0.066711247 -0.12230014 0.52829146 0.0015332492 626 150
-0.063548595 -0.12093583 0.52253443 0.0015933736 663 159
-0.06074807 -0.12018 0.51939571 0.0014692198 669 160
-0.058631383 -0.12077048 0.52206713 0.0015199537 639 153
-0.05702867 -0.12251589 0.52972567 0.0015413888 620 148
-0.055300783 -0.12413701 0.53684235 0.0015916018 596 143
-0.054825127 -0.1288536 0.55734366 0.0018931578 520 124
-0.052173126 -0.12866817 0.55663836 0.0015933093 585 140
-0.049381372 -0.12810096 0.55427396 0.0015351678 625 150
-0.046704449 -0.12778585 0.55299348 0.0014835268 667 160
-0.044055175 -0.12751432 0.5518949 0.0014247256 706 169
-0.041485451 -0.12745379 0.55170363 0.0014315402 710 170
-0.038831446 -0.12710944 0.55027795 0.0013722323 741 177
-0.036322918 -0.12722646 0.55084407 0.001363378 753 180
-0.033793375 -0.12728192 0.55113888 0.0013810624 731 175
-0.031276327 -0.12739731 0.55168831 0.0013503225 762 182
-0.028740164 -0.12744841 0.55195451 0.0013065173 807 193
-0.026215732 -0.12756655 0.5525068 0.0012515573 869 208
-0.02363917 -0.12742911 0.55194777 0.0011942014 934 224
-0.021111406 -0.12755334 0.55251801 0.001193182 931 223
-0.018582689 -0.12770513 0.55320376 0.0012830578 878 210
-0.01603792 -0.12777743 0.55354118 0.0013045542 801 192
-0.013473165 -0.12768769 0.55317295 0.001354605 759 182
-0.010902833 -0.12749076 0.55233663 0.0014638475 728 174
-0.0083245523 -0.12705237 0.55045038 0.0013427788 768 184
-0.0057126088 -0.12548926 0.54368776 0.001380156 794 190
-0.0031819704 -0.12466223 0.54011065 0.0012873317 821 197
-0.00068747014 -0.12438895 0.53892928 0.0012672996 850 204
0.0018033868 -0.12461922 0.53992623 0.001274521 837 200
0.0042974302 -0.12467474 0.54016262 0.0012953555 847 203
0.006779185 -0.12446387 0.53924149 0.0013364025 817 196
0.0092689348 -0.12447362 0.53927279 0.0013372713 798 191
0.011756294 -0.12445395 0.53917313 0.001340739 768 184
0.014287705 -0.12482601 0.54076695 0.0013760924 735 176
0.016823739 -0.12512177 0.54202652 0.0014466138 679 163
0.019463964 -0.12601554 0.54587269 0.0014709762 658 157
0.021892862 -0.12549302 0.54357982 0.0014902402 651 156
0.024339676 -0.1251701 0.5421477 0.0015023296 670 160
0.026786972 -0.12490967 0.54098231 0.0015781407 642 154
0.028898703 -0.12326237 0.53380668 0.0016318727 617 148
0.031287316 -0.12296218 0.53246117 0.0016328639 607 145
0.034172319 -0.12451446 0.53913224 0.0016997826 533 127
0.036250636 -0.12311613 0.53302276 0.0016021669 583 139
0.038826115 -0.12347683 0.5345242 0.0015278152 631 151
0.041344151 -0.1236226 0.53508973 0.0015164037 631 151
0.043939143 -0.12396904 0.53651804 0.0014845364 664 159
0.046646386 -0.12457827 0.53907734 0.0015008422 638 153
0.049115919 -0.12452306 0.53875488 0.0014426615 684 164
0.051311359 -0.1238118 0.53558809 0.0013236108 784 188
0.053654648 -0.12350635 0.53417093 0.0012995962 861 206
0.055999763 -0.12323181 0.53288084 0.0012053904 943 226
0.058207333 -0.12269049 0.53043067 0.0011714958 958 230
0.060560897 -0.12248825 0.52943939 0.0011880948 986 236
0.062942691 -0.12235661 0.52874571 0.0011776668 1010 242
0.065439381 -0.12244979 0.5290153 0.0012065666 1002 240
0.067883402 -0.12244128 0.52883673 0.0011766751 1001 240
0.070376284 -0.12251842 0.52901882 0.0011443869 1007 241
0.07287731 -0.12260406 0.52922791 0.0012053808 973 233
0.075254224 -0.12248211 0.52853119 0.0011771793 953 228
0.077520937 -0.12219417 0.52710819 0.0011881886 940 225
0.079821482 -0.12197551 0.52597415 0.0011965106 926 222
0.082165599 -0.12183445 0.52516407 0.001249029 942 226
0.084552884 -0.12176365 0.52464557 0.0012321564 882 211
0.08677987 -0.12147246 0.52316594 0.0012703002 872 209
0.089779109 -0.12224863 0.52626985 0.001427005 743 178
nan nan nan 0 571 137
0.10122979 -0.13072138 0.56219035 0.0016887094 533 127
0.10357364 -0.13038111 0.5604282 0.0015531546 612 146
0.10548081 -0.12952136 0.55642039 0.0015095184 689 165
0.10743337 -0.12875718 0.55281115 0.001416549 744 178
0.10937209 -0.12801261 0.54927319 0.0013789022 789 189
0.11165132 -0.12769151 0.54753822 0.0013766749 795 190
0.11360734 -0.1270234 0.54430032 0.0013228636 783 188
0.11597924 -0.12683931 0.5431211 0.0013685536 764 183
0.11812273 -0.12641869 0.54091215 0.0013239845 789 189
0.12029043 -0.12604102 0.53887057 0.0012878944 829 199
0.12270804 -0.12593538 0.53797382 0.0013415384 818 196
0.12476621 -0.12547247 0.53553277 0.0012601268 847 203
0.12695099 -0.12515268 0.53368467 0.0012732683 872 209
0.12918341 -0.12489128 0.53206646 0.0012408234 887 212
0.13154428 -0.12476162 0.53098929 0.0012326409 885 212
0.13434008 -0.12504163 0.53163254 0.0012695926 850 204
0.1364533 -0.12468768 0.52955788 0.0012295056 886 212
0.13845228 -0.1242439 0.52708191 0.0012524368 876 210
0.14116675 -0.12444653 0.52732539 0.0013193591 857 205
0.14348635 -0.12430006 0.52606493 0.001257439 854 205
0.14574353 -0.12410542 0.52457762 0.0013152412 847 203
0.14845377 -0.12429664 0.52469569 0.0013301111 796 191
0.15208101 -0.1252367 0.52794278 0.0013884456 750 180
0.15461451 -0.12526023 0.5272944 0.0014266042 698 167
0.1570064 -0.12517007 0.52614111 0.0014970632 643 154
0.16268413 -0.12766124 0.53579605 0.002029412 403 96
nan nan nan 0 179 42
nan nan nan 0 176 42
0.21551575 -0.16151531 0.67457414 0.0018908231 476 114
0.22089928 -0.16310544 0.68003166 0.0015927624 576 138
0.2242026 -0.16313568 0.6789391 0.0017899263 507 121
0.2303111 -0.16517688 0.68616605 0.00246272 304 72
0.23290749 -0.16467713 0.68279201 0.0061474354 104 24
nan nan nan 0 85 20
0.23907447 -0.16438873 0.6789093 0.0051823151 131 31
0.24107115 -0.16351323 0.67391264 0.0040516374 162 38
nan nan nan 0 250 60
0.25410619 -0.16780241 0.68867534 0.0037016328 177 42
0.25836819 -0.16839308 0.6896019 0.0069928779 87 20
0.26316777 -0.16931444 0.69185042 0.0059991311 116 27
0.266022 -0.16897669 0.68893373 0.0047822776 138 33
0.2669557 -0.16744281 0.68114716 0.007562418 91 21
nan nan nan 0 154 36
0.26963747 -0.16498595 0.66812301 0.0037590989 197 47
nan nan nan 0 179 42
0.27784577 -0.1659473 0.66899633 0.0024690714 321 77
0.2813606 -0.16606307 0.6679799 0.0020112253 456 109
0.28968728 -0.16898309 0.67824554 0.0021750205 371 89
0.29417622 -0.1696229 0.67936575 0.0023413037 339 81
0.29935032 -0.17063868 0.68202418 0.0061516571 129 30
nan nan nan 0 98 23
nan nan nan 0 127 30
nan nan nan 0 238 57
nan nan nan 0 268 64
nan nan nan 0 195 46
nan nan nan 0 93 22
nan nan nan 0 104 24
0.3227936 -0.16862428 0.66550708 0.0030340434 223 53
0.32628542 -0.16868615 0.66513932 0.0028849377 275 66
0.33281502 -0.1703012 0.67100835 0.0038281311 184 44
0.33791226 -0.171158 0.67400473 0.0041145836 157 37
0.33713374 -0.16905129 0.66545659 0.0038166649 201 48
0.32930288 -0.16348523 0.64342189 0.0023263181 327 78
0.33624938 -0.16529281 0.65053129 0.00232423 365 87
0.34081835 -0.16590787 0.65306807 0.0028647941 279 66
0.34852883 -0.16802558 0.66164273 0.0044563613 163 39
0.38603073 -0.18432812 0.72623026 0.0099822227 65 15
-0.3651318 -0.15128402 0.62123287 0.017747486 35 8
nan nan nan 0 47 11
nan nan nan 0 67 16
nan nan nan 0 55 13
nan nan nan 0 29 6
nan nan nan 0 22 5
nan nan nan 0 20 4
nan nan nan 0 21 5
nan nan nan 0 38 9
nan nan nan 0 67 16
nan nan nan 0 97 23
nan nan nan 0 147 35
nan nan nan 0 72 17
nan nan nan 0 65 15
nan nan nan 0 91 21
nan nan nan 0 53 12
nan nan nan 0 59 14
nan nan nan 0 91 21
nan nan nan 0 45 10
nan nan nan 0 52 12
nan nan nan 0 38 9
nan nan nan 0 91 21
nan nan nan 0 182 43
nan nan nan 0 128 30
nan nan nan 0 94 22
-0.32853991 -0.1726068 0.69771165 0.011847176 59 14
-0.32798275 -0.17418148 0.70517004 0.0083745085 76 18
nan nan nan 0 103 24
nan nan nan 0 108 25
nan nan nan 0 223 53
-0.2165236 -0.12019937 0.49023706 0.0022889411 370 88
-0.2149117 -0.12067154 0.49318734 0.0025587922 291 69
-0.22726873 -0.12908898 0.52872217 0.003475826 199 47
nan nan nan 0 168 40
nan nan nan 0 142 34
nan nan nan 0 81 19
nan nan nan 0 70 16
nan nan nan 0 82 19
nan nan nan 0 166 39
nan nan nan 0 135 32
-0.194879 -0.12200448 0.50879878 0.0035939 186 44
-0.1946618 -0.12344554 0.5159511 0.003484078 220 52
nan nan nan 0 246 59
-0.18465118 -0.1202084 0.50460207 0.0024927277 297 71
-0.1811745 -0.11953299 0.50282443 0.0029081081 239 57
-0.17686455 -0.1182819 0.4985877 0.0024225076 329 78
-0.17297819 -0.11728336 0.49537444 0.0020823497 427 102
-0.17246239 -0.11857419 0.50181031 0.0025070752 321 77
-0.16467953 -0.11483432 0.48691219 0.0021701592 408 97
-0.15358286 -0.10864232 0.46151358 0.0012535338 859 206
-0.14766498 -0.10598599 0.45104197 0.0010286925 1217 255
-0.1451885 -0.10575748 0.45085698 0.0010158198 1276 255
-0.14299081 -0.10572819 0.45149601 0.0010247643 1216 255
-0.14007245 -0.10515699 0.4497931 0.0011302676 1060 254
-0.13815759 -0.10533309 0.4512603 0.0011058063 1065 255
-0.13543323 -0.10488783 0.4500404 0.0011096923 1067 255
-0.13385211 -0.10532787 0.4525958 0.001111489 1057 253
-0.13240179 -0.10588691 0.45564565 0.0011632821 1053 252
-0.13126884 -0.10672251 0.45987082 0.0011438553 1003 240
-0.1291606 -0.10677999 0.46072561 0.0011865126 947 227
-0.13033709 -0.1096016 0.47350016 0.001255175 881 211
-0.13483484 -0.1153634 0.49900007 0.0012772325 828 198
-0.13227482 -0.1151841 0.49880791 0.0011336193 1015 243
-0.12896603 -0.11433449 0.49568519 0.0010674555 1123 255
-0.12672682 -0.11441927 0.49658743 0.0010253304 1201 255
-0.12384387 -0.1139151 0.49491 0.0011518036 1082 255
-0.11943153 -0.11195797 0.48688847 0.0013199414 867 208
-0.11382613 -0.10878427 0.47353446 0.0011831135 945 226
-0.10923965 -0.1064775 0.46391302 0.0010489096 1167 255
-0.10525011 -0.10467073 0.45643586 0.0010144422 1226 255
-0.102258 -0.10380162 0.45302019 0.00099607348 1274 255
-0.099968441 -0.10362396 0.45260182 0.0010095407 1318 255
-0.09734492 -0.10308499 0.45058674 0.00099568896 1285 255
-0.093888752 -0.10162099 0.44450629 0.00099158927 1287 255
-0.091181435 -0.10091967 0.44174042 0.00097408373 1329 255
-0.08884868 -0.10061009 0.44067192 0.0010087088 1322 255
-0.086684756 -0.10048158 0.44038153 0.0010326159 1198 255
-0.084889367 -0.10078438 0.44196841 0.0010969763 1086 255
-0.083281025 -0.1013298 0.44460848 0.0011826842 952 228
nan nan nan 0 810 194
nan nan nan 0 695 166
nan nan nan 0 550 132
-0.093697526 -0.12657435 0.55646473 0.00210441 397 95
-0.09003225 -0.12507072 0.55008888 0.0017503873 513 123
-0.085659519 -0.1224679 0.53885829 0.0015814445 608 145
-0.083837263 -0.12346464 0.54345077 0.001631509 601 144
-0.081967175 -0.12445052 0.54798722 0.0016336985 572 137
-0.080095477 -0.12549692 0.55278188 0.0017866361 511 122
-0.077549934 -0.12552178 0.55306768 0.0017608749 506 121
-0.072743095 -0.12176318 0.53666764 0.0016781015 589 141
-0.068757035 -0.11916122 0.52534759 0.0015442462 660 158
-0.065745682 -0.11811964 0.52089339 0.0015868887 651 156
-0.06315738 -0.11778777 0.51955867 0.0014655399 672 161
-0.060666382 -0.11761829 0.51893151 0.00150577 649 155
-0.058404472 -0.11789729 0.52027547 0.0016456668 615 147
-0.056938007 -0.11987495 0.52911025 0.0016141608 606 145
-0.055562947 -0.12223126 0.53961265 0.0016617046 586 140
-0.054576419 -0.12570396 0.55504131 0.0018035696 519 124
-0.052070744 -0.12584762 0.5557667 0.0017974363 546 131
-0.049434811 -0.12567507 0.555089 0.0015649463 603 144
-0.046743806 -0.12533593 0.55366904 0.0016194386 635 152
-0.044067748 -0.12499996 0.55225664 0.0014788075 664 159
-0.041425604 -0.12472479 0.55110711 0.0014418351 692 166
-0.038873505 -0.12470245 0.55106914 0.0014122956 704 169
-0.036240727 -0.12440006 0.54978848 0.0013842103 734 176
-0.033719383 -0.12446343 0.55011928 0.0014709022 723 173
-0.031230731 -0.12466763 0.55106807 0.0013633517 756 181
-0.028701941 -0.1247336 0.5514015 0.0013063574 804 193
-0.026138157 -0.12464553 0.55104983 0.0012729304 841 201
-0.023679404 -0.12509334 0.55306315 0.001241255 872 209
-0.02112321 -0.12507242 0.55300051 0.0012026879 940 225
-0.018594006 -0.12522753 0.55371231 0.0012021688 930 223
-0.016069662 -0.12546997 0.55480689 0.0012788343 831 199
-0.013497939 -0.12536429 0.55435854 0.0013713968 771 185
-0.01091286 -0.12505613 0.5530113 0.0013697933 743 178
-0.0083399117 -0.12474131 0.55163127 0.0014537208 738 177
-0.0057413843 -0.1235992 0.54658949 0.0013662798 748 179
-0.0031759876 -0.12193955 0.53925556 0.0013171418 849 203
-0.00068288587 -0.12108853 0.53549451 0.0012338874 941 225
0.0017844462 -0.12084443 0.53441423 0.0011896458 956 229
0.0042624054 -0.12118571 0.53591973 0.0012346659 932 223
0.0067685503 -0.1217835 0.53855652 0.0013188828 866 207
0.0092584398 -0.12184631 0.53882408 0.0012916424 818 196
0.011750849 -0.12190864 0.53908646 0.0013387041 782 187
0.014207385 -0.12164204 0.53789103 0.001374675 744 178
0.0165361 -0.12052317 0.5329237 0.0013945124 723 173
0.019268693 -0.12225652 0.54056472 0.0014415277 689 165
0.021743452 -0.1221441 0.54004055 0.0016391751 628 150
0.024100754 -0.12146286 0.53699791 0.0015303858 626 150
0.026440397 -0.12082795 0.53415662 0.0015249612 661 158
0.028382313 -0.11863885 0.52444154 0.0014528807 684 164
0.030738141 -0.11838806 0.52329129 0.0015505373 608 145
0.033720724 -0.12041184 0.53219008 0.0017047165 527 126
0.036038857 -0.1199492 0.53009439 0.0015841228 590 141
0.038491268 -0.11996394 0.53010386 0.0015587944 607 145
0.04118016 -0.12066986 0.53316218 0.0015803495 614 147
0.043712698 -0.1208638 0.53395253 0.0015503612 613 147
0.046643022 -0.12207817 0.53924465 0.0015920177 601 144
0.049003713 -0.12175407 0.53773469 0.0015519134 612 146
0.05137758 -0.12149241 0.53649479 0.001463173 707 169
0.053685587 -0.12110627 0.53469914 0.0013259619 779 187
0.056068361 -0.12091536 0.53375918 0.0012730462 856 205
0.05847678 -0.12079352 0.53311706 0.0012902512 899 215
0.060795866 -0.12050446 0.53173018 0.001229469 934 224
0.063159309 -0.12032239 0.53080797 0.0011488658 989 237
0.065409034 -0.11994542 0.52901834 0.0011600245 998 239
0.067857765 -0.11994739 0.52889198 0.0011430937 996 239
0.070295557 -0.11993057 0.52867395 0.0011632955 996 239
0.072756819 -0.11995357 0.52862209 0.0011520567 987 236
0.07515344 -0.11987199 0.52809983 0.0011953278 995 238
0.077581294 -0.11984378 0.52780265 0.0011715454 951 228
0.079924531 -0.11969057 0.52694464 0.0012455184 932 223
0.082336023 -0.11964566 0.52655268 0.0012023899 922 221
0.084627159 -0.11943346 0.52541345 0.0012047264 915 219
0.086844012 -0.11913123 0.52386719 0.0012194259 902 216
0.089263469 -0.11911584 0.52357054 0.0012889117 818 196
0.092448257 -0.12009548 0.52763253 0.001447808 688 165
0.098615952 -0.12479939 0.54803133 0.0017736292 552 132
0.10340482 -0.12756549 0.55988979 0.0016005429 590 141
0.10512178 -0.12649915 0.55490834 0.0014182335 702 168
0.10739738 -0.12614004 0.55301684 0.0013938374 760 182
0.10933997 -0.12541577 0.54951072 0.0013240444 776 186
0.11127266 -0.12471353 0.54608816 0.0013295963 777 186
0.11357688 -0.12444981 0.54457122 0.001322373 790 189
0.11578071 -0.12409004 0.54261768 0.0012912503 817 196
0.11797402 -0.1237346 0.54066694 0.0013033295 806 193
0.12011544 -0.12334079 0.53853202 0.0013123009 857 205
0.12208527 -0.12279057 0.53569788 0.0012988708 860 206
0.12449691 -0.1226979 0.53484213 0.001302531 853 204
0.12679473 -0.12249891 0.53350341 0.0012494032 860 206
0.12913632 -0.12234911 0.53235912 0.0012540879 868 208
0.13154694 -0.12226914 0.5314979 0.0012574386 858 206
0.13393639 -0.12217282 0.53054392 0.0012615137 852 204
0.13551083 -0.1213502 0.52641737 0.0012306825 888 213
0.13832515 -0.12164749 0.52712804 0.0012542367 862 206
0.14091988 -0.12174459 0.52694547 0.0012561891 849 203
0.14351848 -0.12184159 0.52673715 0.0013237746 816 195
0.14619622 -0.12200136 0.52677393 0.001357742 770 184
0.14906117 -0.12230936 0.52742267 0.0013551206 763 183
0.15128493 -0.12208978 0.52576995 0.001382641 753 180
0.15397921 -0.12225089 0.52573085 0.0014032959 730 175
0.15662903 -0.12237211 0.52549171 0.001507786 674 161
0.16130787 -0.1240499 0.53189844 0.0018347776 477 114
nan nan nan 0 311 74
0.20777026 -0.15491846 0.66215938 0.0019119486 436 104
0.21554728 -0.15830851 0.67552495 0.0012974303 812 194
0.22068155 -0.15968612 0.6802339 0.001349851 801 192
0.22450127 -0.16008629 0.68073058 0.0022031534 358 85
0.22900043 -0.16095249 0.68316466 0.0058594244 104 24
0.22810252 -0.15805452 0.66960341 0.0077955616 91 21
nan nan nan 0 195 46
0.23807137 -0.16042535 0.6769895 0.0026588093 273 65
0.24057345 -0.15991248 0.67345399 0.0030298526 233 55
0.24214876 -0.15880555 0.66740215 0.0023314112 339 81
0.2459202 -0.15914908 0.66742659 0.0044728913 148 35
nan nan nan 0 128 30
0.26187578 -0.16511391 0.6894263 0.0041848021 152 36
0.26536128 -0.16518623 0.68819189 0.0035481292 208 49
nan nan nan 0 124 29
0.27871752 -0.16920179 0.70173889 0.0061093438 122 29
0.27276972 -0.16356485 0.67681551 0.0052521746 119 28
0.27532321 -0.16310024 0.67335588 0.0031272448 240 57
0.27938646 -0.16353048 0.67360085 0.0016425964 541 129
0.28122866 -0.16266586 0.66853303 0.0013006571 809 194
0.28635329 -0.16369787 0.67128354 0.0016202996 610 146
0.2957696 -0.16713119 0.68387419 0.0043907608 173 41
nan nan nan 0 138 33
nan nan nan 0 176 42
0.2934362 -0.16026855 0.65178925 0.0031935077 211 50
nan nan nan 0 223 53
0.30273685 -0.16174299 0.65541255 0.0034283476 205 49
0.30500242 -0.16119601 0.6521349 0.0041309004 157 37
nan nan nan 0 146 35
0.32123184 -0.16618875 0.67043453 0.0049464046 129 30
0.32332113 -0.16552222 0.66695756 0.002831717 268 64
0.32526729 -0.16479693 0.6633625 0.0018603961 476 114
0.32842162 -0.1646924 0.66238582 0.0019357764 438 105
0.3368288 -0.16719738 0.67201847 0.0034053109 228 54
0.33854845 -0.16636583 0.66835958 0.0032607627 211 50
0.3354173 -0.16319074 0.65541595 0.0031447774 258 61
0.33813655 -0.16289645 0.65416944 0.0034643062 219 52
0.34443724 -0.16431648 0.65993065 0.0054782042 120 28
nan nan nan 0 60 14
0.41365209 -0.19356728 0.77797729 0.014547426 43 10
-0.41261601 -0.16746944 0.70132864 0.022294722 27 6
nan nan nan 0 36 8
nan nan nan 0 63 15
-0.3759875 -0.15657432 0.65131438 0.011116124 52 12
nan nan nan 0 37 8
-0.2844387 -0.12054159 0.49947542 0.007891234 87 20
nan nan nan 0 60 14
nan nan nan 0 31 7
nan nan nan 0 31 7
nan nan nan 0 40 9
nan nan nan 0 61 14
nan nan nan 0 75 18
nan nan nan 0 55 13
nan nan nan 0 63 15
nan nan nan 0 98 23
nan nan nan 0 92 22
nan nan nan 0 75 18
nan nan nan 0 106 25
nan nan nan 0 47 11
-0.39434367 -0.19068497 0.78236026 0.015342626 41 9
-0.39185366 -0.19140898 0.78584152 0.016458672 35 8
nan nan nan 0 35 8
nan nan nan 0 85 20
nan nan nan 0 192 46
-0.32781726 -0.16692312 0.6883105 0.0033753759 203 48
-0.32867539 -0.1691543 0.69855237 0.0046850881 147 35
-0.32914078 -0.17122956 0.70827699 0.0046872227 150 36
-0.31406656 -0.16517748 0.68444574 0.00315653 219 52
-0.31048086 -0.16510044 0.68540865 0.0035479898 189 45
nan nan nan 0 242 58
nan nan nan 0 261 62
nan nan nan 0 247 59
nan nan nan 0 181 43
nan nan nan 0 168 40
nan nan nan 0 126 30
nan nan nan 0 230 55
nan nan nan 0 228 54
nan nan nan 0 89 21
-0.21684761 -0.12967445 0.55032355 0.0048883185 153 36
-0.21989459 -0.13315526 0.56637996 0.0035547258 192 46
nan nan nan 0 182 43
-0.19149143 -0.11895704 0.50824946 0.0026103545 282 67
nan nan nan 0 265 63
-0.18056782 -0.11515138 0.49411863 0.0023450945 326 78
-0.18133131 -0.11719514 0.50394279 0.0025040747 296 71
nan nan nan 0 219 52
-0.17357181 -0.11528435 0.49773535 0.0020857626 380 91
-0.17175399 -0.11567746 0.50040513 0.0024798587 302 72
nan nan nan 0 467 112
-0.15295401 -0.10598961 0.46021011 0.0012077726 909 218
-0.14746024 -0.10367929 0.4509818 0.00098553195 1367 255
-0.14515433 -0.10357499 0.45130691 0.001049281 1213 255
-0.14259985 -0.10328752 0.45080718 0.0010987717 1097 255
-0.13901596 -0.10223419 0.44693142 0.0011240108 1100 255
-0.13676497 -0.10214356 0.44723266 0.0010943983 1154 255
-0.13511263 -0.10250425 0.4494884 0.0011063026 1138 255
-0.13274871 -0.10232801 0.44936752 0.0010722497 1160 255
-0.13126285 -0.1028339 0.45222124 0.0010719103 1128 255
-0.12912457 -0.10283697 0.45284402 0.0011449996 1066 255
-0.12788568 -0.10356855 0.45665652 0.0011632887 981 235
-0.12640637 -0.10412715 0.45969132 0.0012135112 936 224
nan nan nan 0 815 195
-0.13207009 -0.11265901 0.49852344 0.0012955741 829 199
-0.1294311 -0.11240526 0.49794811 0.0011532697 973 233
-0.12638138 -0.1117789 0.4956958 0.001046741 1163 255
-0.12388145 -0.1116244 0.49551088 0.001019505 1214 255
-0.12155499 -0.1116233 0.49598506 0.0010383209 1179 255
-0.1174575 -0.10996412 0.48906454 0.0011997992 1007 241
-0.11145785 -0.10642271 0.4737325 0.0011763959 990 237
-0.10581642 -0.10308652 0.45926917 0.0011253164 1110 255
-0.10339021 -0.10280928 0.45840302 0.001057746 1214 255
-0.10097837 -0.10253491 0.45753103 0.0010006567 1262 255
-0.098305434 -0.10197784 0.45537853 0.0010040932 1259 255
-0.094799444 -0.10051288 0.44914988 0.0010877134 1183 255
-0.091469832 -0.099172987 0.44345668 0.0010238428 1276 255
-0.0889365 -0.098654456 0.44141656 0.00098276918 1323 255
-0.086634703 -0.098374315 0.44042715 0.0010260682 1276 255
-0.084517941 -0.098295808 0.44032636 0.0010420262 1191 255
-0.082776994 -0.098661304 0.44220254 0.0011321221 1084 255
-0.080809914 -0.098769039 0.44291228 0.0011563721 989 237
-0.080568686 -0.10104692 0.45334697 0.001272731 867 208
nan nan nan 0 687 164
nan nan nan 0 541 129
-0.091826648 -0.12496039 0.56136632 0.00211853 394 94
-0.088283129 -0.12364326 0.55566454 0.0018887488 470 112
-0.085885622 -0.1239002 0.55702275 0.0018210594 494 118
-0.082966648 -0.12339751 0.55495369 0.0018558262 500 120
-0.079609878 -0.1221907 0.54970449 0.0017167084 533 127
-0.075112835 -0.11909619 0.53594625 0.0015916165 586 140
-0.071150348 -0.1166668 0.52516401 0.0015784118 637 152
-0.068027884 -0.11549172 0.52001405 0.0014595869 678 162
-0.065260075 -0.11485464 0.51727569 0.0014863812 659 158
-0.062666155 -0.11448676 0.51574022 0.0015321212 668 160
-0.060489774 -0.11488274 0.51763803 0.0015926076 661 158
-0.058218356 -0.11512344 0.51882929 0.0015337166 628 150
-0.056320813 -0.11615588 0.52358252 0.0016186134 626 150
-0.055614974 -0.11984912 0.54032654 0.0017259197 567 136
-0.054284107 -0.12247932 0.55227613 0.0017762471 535 128
-0.051843464 -0.12274149 0.55354345 0.0016351121 560 134
-0.049392156 -0.12300431 0.55480784 0.0016157782 579 139
-0.04679925 -0.12292395 0.55451852 0.001539832 620 148
-0.044030242 -0.12234499 0.55197388 0.0014651727 665 159
-0.041479558 -0.12233877 0.55200756 0.0014899833 691 165
-0.038854532 -0.12209815 0.55097848 0.0014235382 713 171
-0.036231823 -0.12183161 0.5498274 0.0014163776 711 170
-0.033696424 -0.12184061 0.54991502 0.00138918 725 174
-0.031210478 -0.12204446 0.55087799 0.0014046624 745 178
-0.028699987 -0.12217994 0.55152828 0.001336252 787 188
-0.026161831 -0.1222126 0.55171043 0.0013534289 804 193
-0.023641113 -0.12234253 0.55232799 0.001273219 838 201
-0.021139946 -0.12261726 0.55359578 0.0012125869 901 216
-0.018601902 -0.1227242 0.55410254 0.0011873305 940 225
-0.01607506 -0.12295091 0.55514693 0.0012379757 876 210
-0.013517121 -0.12298061 0.55529839 0.0013255031 786 188
-0.010909613 -0.12246778 0.55299705 0.0014205419 718 172
-0.0082346229 -0.12065315 0.54481411 0.0014149897 711 170
-0.0056764754 -0.11970821 0.54055518 0.0014568382 755 181
-0.0031609687 -0.11888636 0.53684908 0.001324643 828 198
-0.0006820322 -0.11846931 0.53496808 0.0012675037 913 219
0.0017838238 -0.11833718 0.53437078 0.0011761889 952 228
0.0042588445 -0.11861361 0.5356155 0.0012107078 909 218
0.0067476612 -0.11893021 0.53703886 0.0012840361 818 196
0.0092370743 -0.11908446 0.5377261 0.0013069119 801 192
0.011711896 -0.11902511 0.53744608 0.0013813844 790 189
0.01409947 -0.11825474 0.53395241 0.0013964463 772 185
0.016537979 -0.11807718 0.53313255 0.0013528226 757 181
0.018938662 -0.11771049 0.5314557 0.0014657172 740 177
0.021402916 -0.1177777 0.53173459 0.0014929047 688 165
0.023788318 -0.11744179 0.53019029 0.0015003053 699 167
0.026047925 -0.1166054 0.52638322 0.0014036329 736 176
0.02818957 -0.11542867 0.52103662 0.0013945657 733 176
0.030772779 -0.1161029 0.52404159 0.0015115932 644 154
0.033563118 -0.11740341 0.52986848 0.0017469114 548 131
0.035871293 -0.11695518 0.52779841 0.0015988498 625 150
0.038315903 -0.11698056 0.5278613 0.0015614334 602 144
0.040815003 -0.11715928 0.5286113 0.0015704085 600 144
0.043575242 -0.11802515 0.5324561 0.0015520096 607 145
0.046381894 -0.11891752 0.53641433 0.0017186411 556 133
0.048956577 -0.11915481 0.53741127 0.0017295511 560 134
0.051241737 -0.11869855 0.53527445 0.0014848678 657 157
0.053623568 -0.11849792 0.53428459 0.0014011556 715 171
0.056141276 -0.11860199 0.53466219 0.0013235465 791 189
0.058641493 -0.1186619 0.53483367 0.0012993998 834 200
0.061044976 -0.11852914 0.53412956 0.0012542973 856 205
0.063215517 -0.11797197 0.53150618 0.001195806 923 221
0.06555441 -0.11775895 0.53042597 0.0011838583 944 226
0.067885473 -0.11754772 0.52934617 0.0011871364 933 224
0.070276998 -0.11745225 0.52877915 0.0011509258 986 236
0.072660826 -0.11735076 0.52817637 0.0011601112 994 238
0.075099617 -0.11734176 0.52798045 0.0011567107 978 234
0.077434339 -0.11717588 0.52706891 0.0011977026 972 233
0.079987586 -0.11734067 0.5276345 0.0012191762 953 228
0.082382701 -0.1172706 0.52713305 0.001179412 948 227
0.084679224 -0.11706828 0.52602619 0.0011936856 928 222
0.086830601 -0.11668222 0.52408314 0.0012035129 912 218
0.089214019 -0.11662051 0.52358556 0.0012557356 864 207
0.091775455 -0.11678861 0.52410674 0.0013801367 767 184
0.09578719 -0.11874595 0.53263986 0.0014972216 650 156
0.10306864 -0.12455612 0.55842382 0.0018643377 533 127
0.10476948 -0.12350251 0.55340976 0.0014874859 648 155
0.10680299 -0.12288214 0.55032527 0.0013711031 735 176
0.10919761 -0.12269657 0.54917401 0.0013355932 772 185
0.1114097 -0.12231909 0.54714864 0.0013421575 766 183
0.11348631 -0.12181307 0.54453343 0.0013788309 778 186
0.11562617 -0.12139558 0.54229903 0.0013946487 811 194
0.11794255 -0.12117733 0.54093844 0.001372484 813 195
0.11997009 -0.12067768 0.53830504 0.0013232208 834 200
0.12231956 -0.12051573 0.53716105 0.0012818967 826 198
0.12441906 -0.12011897 0.5349524 0.0012809607 829 199
0.12697218 -0.12016714 0.53470612 0.0012844476 827 198
0.12925446 -0.11996209 0.53331262 0.0012612725 849 203
0.13155818 -0.11978432 0.53202039 0.0013465646 825 198
0.1340435 -0.11977546 0.53145689 0.0012595013 848 203
0.13644326 -0.11969187 0.53053939 0.0012805806 827 198
0.13824631 -0.11909721 0.5273366 0.0013040301 807 193
0.141268 -0.11955487 0.52876979 0.0013688265 786 188
0.14380646 -0.11959478 0.5283286 0.0014235496 731 175
0.14628415 -0.11958367 0.52763683 0.0013543738 754 181
0.14885211 -0.11964547 0.52724105 0.0014092807 717 172
0.15127251 -0.11958859 0.52629644 0.0013565527 755 181
0.1535548 -0.11942614 0.52486199 0.0013795678 743 178
0.15574189 -0.119196 0.52310598 0.0014375746 694 166
0.15792826 -0.11897256 0.52135521 0.001608551 580 139
nan nan nan 0 387 92
0.20712745 -0.15128769 0.6609025 0.0020030041 455 109
0.21541195 -0.15498069 0.67592561 0.0018633619 459 110
0.22061959 -0.15638365 0.68088841 0.0028542085 265 63
0.22434162 -0.156708 0.68110645 0.0077173887 90 21
0.22604482 -0.15563315 0.67521322 0.0092542442 62 14
0.22659642 -0.15380695 0.66604882 0.0042555216 148 35
0.22876465 -0.15311374 0.66177773 0.0023364013 342 82
0.23098384 -0.15247321 0.65771312 0.0034746313 222 53
nan nan nan 0 310 74
0.24311748 -0.15618728 0.67098522 0.0035027743 214 51
0.24586129 -0.15586415 0.66818249 0.0032593017 214 51
nan nan nan 0 238 57
0.26120886 -0.16133267 0.68862158 0.0032371799 211 50
0.26421517 -0.16111653 0.68616748 0.0026123917 310 74
nan nan nan 0 191 45
0.27680355 -0.16461085 0.69787639 0.0039984048 169 40
0.27687824 -0.1626405 0.68794405 0.0030055009 234 56
0.27645141 -0.16042671 0.67702252 0.0019948657 445 106
0.27837557 -0.15961385 0.67204893 0.0013808273 734 176
0.28147265 -0.15948474 0.66997659 0.0014483086 748 179
0.28937536 -0.16204977 0.67921972 0.0022815436 344 82
nan nan nan 0 72 17
nan nan nan 0 122 29
0.29052261 -0.15719116 0.65459985 0.0031355091 240 57
0.29342678 -0.15699303 0.65245432 0.0036905797 214 51
0.28584743 -0.15125206 0.62738371 0.0050267978 127 30
0.29583439 -0.15482993 0.64105463 0.0050571612 135 32
0.31043029 -0.16071677 0.66429585 0.0049877656 141 33
nan nan nan 0 129 30
0.32520545 -0.16481128 0.67918187 0.0059140609 99 23
0.32357296 -0.16227084 0.66786385 0.0030935789 223 53
0.32594213 -0.16176905 0.66506338 0.0022933551 338 81
0.33086324 -0.16253108 0.66757411 0.0030208002 235 56
0.33539632 -0.16308901 0.66936213 0.0050739441 121 29
0.33797193 -0.16269344 0.66736001 0.0061585726 102 24
0.34128845 -0.16265884 0.66696501 0.0070400746 93 22
0.36524343 -0.17236458 0.70662808 0.0081290146 72 17
0.37412304 -0.17483628 0.71676087 0.013845779 47 11
0.37751406 -0.17472012 0.7164194 0.013397089 45 10
0.39384234 -0.18053657 0.74054605 0.017168885 35 8
nan nan nan 0 34 8
-0.29899377 -0.11983859 0.51086515 0.0082189376 74 17
nan nan nan 0 82 19
nan nan nan 0 41 9
-0.32028487 -0.13174225 0.55810529 0.012141068 45 10
nan nan nan 0 81 19
nan nan nan 0 116 27
nan nan nan 0 61 14
-0.39879835 -0.16998711 0.71544105 0.019651581 30 7
nan nan nan 0 38 9
-0.37786749 -0.16404045 0.68878633 0.010769268 57 13
-0.37427714 -0.16399641 0.68796098 0.0099113379 68 16
-0.37001449 -0.16365418 0.68600619 0.0056462837 118 28
nan nan nan 0 92 22
nan nan nan 0 98 23
nan nan nan 0 52 12
nan nan nan 0 75 18
nan nan nan 0 99 23
nan nan nan 0 154 36
-0.3902421 -0.18477081 0.77444667 0.013490716 56 13
-0.39338759 -0.18815537 0.7892186 0.012504286 48 11
nan nan nan 0 32 7
-0.34150726 -0.16673444 0.70078588 0.01482893 42 10
nan nan nan 0 56 13
-0.32350352 -0.16129513 0.67975295 0.0074200984 80 19
-0.3254748 -0.16401775 0.69231504 0.0061066309 103 24
-0.31948113 -0.16274206 0.68810445 0.0050798832 126 30
-0.31480628 -0.16211757 0.68671942 0.004665073 144 34
-0.31355101 -0.16325977 0.69289905 0.0084790271 75 18
nan nan nan 0 221 53
nan nan nan 0 365 87
nan nan nan 0 158 37
nan nan nan 0 122 29
nan nan nan 0 269 64
nan nan nan 0 157 37
nan nan nan 0 195 46
nan nan nan 0 175 42
nan nan nan 0 97 23
nan nan nan 0 94 22
-0.19594711 -0.11618238 0.5053826 0.0027819416 260 62
-0.19361955 -0.11626892 0.50689572 0.0024930018 301 72
-0.18749449 -0.11404779 0.49831295 0.0022257008 354 85
nan nan nan 0 188 45
nan nan nan 0 190 45
-0.17883152 -0.11317187 0.49765235 0.0020634392 389 93
-0.17586179 -0.11281131 0.49707642 0.0019798328 419 100
-0.17406332 -0.11320251 0.49978939 0.0022319527 353 84
-0.17116842 -0.1128816 0.49933434 0.0027294648 293 70
-0.16326232 -0.10919978 0.48395351 0.0021798601 389 93
-0.1521437 -0.10323191 0.45833746 0.0011697888 963 231
-0.14715692 -0.10131072 0.4506008 0.00097085413 1385 255
-0.14459179 -0.10102439 0.45009425 0.001035583 1212 255
-0.14140041 -0.10028524 0.44753864 0.0010749663 1134 255
-0.13878448 -0.099937856 0.44669959 0.0010400317 1191 255
-0.13651085 -0.099829964 0.44690406 0.00102555 1210 255
-0.13460769 -0.099993877 0.44830209 0.0010579209 1212 255
-0.13270925 -0.10016663 0.44971868 0.0010780791 1179 255
-0.13032795 -0.099974595 0.44947428 0.001082727 1128 255
-0.12880625 -0.10044652 0.45219389 0.0011148999 1110 255
-0.12678331 -0.10053694 0.45317683 0.0011118483 1056 253
-0.12624392 -0.10182703 0.45955291 0.0011328056 1022 245
-0.12459502 -0.10225166 0.4620105 0.001257478 905 217
-0.12889053 -0.10765644 0.4869785 0.001363712 791 189
-0.13058373 -0.11104389 0.50284296 0.0012692286 837 200
-0.1268961 -0.10989617 0.4981595 0.0011346375 1022 245
-0.12405445 -0.10945178 0.49663523 0.0010537753 1133 255
-0.12159418 -0.10933331 0.49656641 0.0010436916 1247 255
-0.11928084 -0.10934489 0.49706754 0.00098850462 1284 255
-0.11585923 -0.10832079 0.49283677 0.0010639525 1133 255
-0.10919859 -0.10416538 0.47432059 0.0011237679 1052 252
-0.10468706 -0.10193035 0.46450764 0.0010865595 1095 255
-0.10113218 -0.10055192 0.45856872 0.0010946114 1157 255
-0.098779559 -0.1003351 0.45790589 0.0010732523 1167 255
-0.094894163 -0.098517418 0.44991502 0.0010768163 1117 255
-0.091495655 -0.097134508 0.44388539 0.0010064699 1280 255
-0.089191303 -0.09687613 0.44297573 0.00094787573 1385 255
-0.086238526 -0.095884576 0.43869662 0.0009556713 1371 255
-0.084208623 -0.095895939 0.43899053 0.00097598624 1320 255
-0.081509352 -0.095126659 0.43569645 0.001005435 1263 255
-0.079815894 -0.095521942 0.43772346 0.0011039106 1074 255
-0.078576542 -0.096495554 0.44239196 0.0011814436 966 231
-0.077901736 -0.098233275 0.45055801 0.0013485928 825 198
nan nan nan 0 711 170
nan nan nan 0 527 126
-0.089556292 -0.12281357 0.56396586 0.0024010604 357 85
-0.086209945 -0.12177735 0.55940336 0.0019551625 439 105
-0.081078395 -0.11807708 0.54258424 0.0017508502 551 132
-0.07618437 -0.11449715 0.52629679 0.0015217549 635 152
-0.073061369 -0.11343031 0.52154452 0.0014613894 675 162
-0.070402667 -0.11303607 0.5198735 0.0014736267 687 164
-0.067193851 -0.11169944 0.51385731 0.0014063549 720 172
-0.064425267 -0.11102347 0.51086968 0.0013923674 731 175
-0.062034916 -0.11097266 0.51074988 0.0014797389 715 171
-0.060350876 -0.1122313 0.51665038 0.0015068295 668 160
-0.058176477 -0.1126442 0.51865178 0.001592993 645 154
-0.056314353 -0.11372317 0.5237143 0.0016349307 622 149
-0.055548601 -0.11721247 0.53987378 0.0017682336 549 131
-0.054196719 -0.11973487 0.55157769 0.0017969084 525 126
-0.051786195 -0.12005187 0.55311775 0.0016457422 563 135
-0.049492795 -0.12068738 0.55612004 0.0016443852 566 135
-0.046967946 -0.12079717 0.55669439 0.0016287911 572 137
-0.044316422 -0.12057503 0.55573356 0.0015843323 622 149
-0.041559938 -0.12002245 0.55324429 0.0016217758 632 151
-0.038979162 -0.11993819 0.55290848 0.0015315714 662 158
-0.036310669 -0.11955332 0.55118227 0.0014720672 662 158
-0.033755369 -0.11951123 0.55103171 0.0014385646 689 165
-0.03128808 -0.11979926 0.5523994 0.0014615712 711 170
-0.028742267 -0.11981106 0.55248952 0.0014382461 750 180
-0.026178926 -0.11974497 0.55221677 0.0013771112 772 185
-0.023651825 -0.11984827 0.55272162 0.0013618176 796 191
-0.021140374 -0.12006545 0.55374831 0.0013239823 841 201
-0.018616026 -0.12025896 0.55466276 0.0012246576 896 215
-0.016079493 -0.12042291 0.55543786 0.0012374307 911 218
-0.013516524 -0.12041347 0.55541021 0.001346555 818 196
-0.010955213 -0.12041786 0.55544335 0.0014600451 678 162
-0.008212138 -0.11781722 0.54345757 0.0014974419 669 160
-0.0056799031 -0.11728533 0.54101139 0.0013915638 722 173
-0.0031713156 -0.11679088 0.53873521 0.0013012475 808 194
-0.00068144995 -0.11590243 0.53463888 0.0012208396 917 220
0.0017841548 -0.11589358 0.53459752 0.0011743621 963 231
0.0042565144 -0.11607921 0.53545064 0.0011984857 930 223
0.0067466367 -0.11643508 0.53708643 0.001275099 857 205
0.0092299273 -0.11651357 0.53744012 0.0013015073 814 195
0.011685967 -0.11628765 0.53638703 0.0013063751 799 191
0.014115009 -0.11591896 0.53467268 0.0013310758 779 187
0.016512766 -0.11544123 0.53245258 0.0013367971 772 185
0.018946279 -0.11530479 0.53180397 0.0013782749 742 178
0.021370694 -0.11515063 0.53107053 0.0014459963 721 173
0.023796581 -0.11503529 0.53051305 0.0014055903 710 170
0.025852885 -0.11332145 0.52258086 0.0013795343 740 177
0.028236428 -0.11321204 0.52204454 0.0013793886 739 177
0.031101996 -0.11490058 0.52979493 0.0015780539 599 143
0.03340419 -0.11441342 0.52750909 0.001664815 546 131
0.035479575 -0.11326833 0.52218646 0.001639731 628 150
0.03814815 -0.11404223 0.52570653 0.0015635774 608 145
0.040585488 -0.11407363 0.52579927 0.0016534092 584 140
0.043018654 -0.11409041 0.52581978 0.0016773758 586 140
0.046409637 -0.11651 0.53690803 0.0016632283 550 132
0.048833847 -0.11638021 0.53624153 0.0017324594 515 123
0.051119912 -0.11594961 0.53418368 0.0015822357 622 149
0.053396173 -0.11553745 0.53220534 0.0014315952 690 165
0.055861361 -0.11555236 0.53218824 0.0014025883 736 176
0.058752317 -0.11640963 0.53604341 0.0013437361 758 182
0.061261877 -0.11647242 0.53623253 0.0013367516 779 187
