# .PCD v0.7 - Point Cloud Data file format
VERSION 0.7
FIELDS x y z noise intensity gray
SIZE 4 4 4 4 2 1
TYPE F F F F U U
COUNT 1 1 1 1 1 1
WIDTH 930
HEIGHT 1
VIEWPOINT 0 0 0 1 0 0 0
POINTS 930
DATA ascii
-0.064169928 -0.12187213 0.54913074 0.0013802995 803 183
-0.061788984 -0.12218415 0.55064994 0.0013326253 781 178
-0.059448749 -0.12260693 0.55266112 0.0014110868 773 176
-0.056920361 -0.12266219 0.55300897 0.0013926907 798 182
-0.054852583 -0.12376194 0.55805969 0.0014140746 750 171
-0.052563027 -0.12444507 0.56122631 0.0013923607 728 166
-0.050143119 -0.12487447 0.56324315 0.001402121 717 163
-0.047521137 -0.12482007 0.56307203 0.0013973989 720 164
-0.045041937 -0.12515613 0.56465667 0.0013765347 740 169
-0.042473614 -0.12527062 0.56523645 0.0014386183 732 167
-0.039758828 -0.12493984 0.56380188 0.0013669045 751 171
-0.037275996 -0.1253427 0.56567299 0.001382191 749 171
-0.034586355 -0.12505846 0.56443846 0.0013298874 776 177
-0.031996351 -0.12511751 0.56474888 0.0013861002 780 178
-0.029505547 -0.12560932 0.56700879 0.0013733546 778 177
-0.026953163 -0.12590925 0.56839836 0.0014130159 756 172
-0.024727372 -0.12796392 0.57770628 0.0014140786 710 162
-0.022212449 -0.12883806 0.58168167 0.0014364605 703 160
-0.019697012 -0.12994908 0.58672303 0.0014721005 669 153
-0.017577574 -0.13444297 0.6070357 0.0015777374 599 136
-0.014817711 -0.13481356 0.60872811 0.0016543107 560 128
-0.011995205 -0.13465428 0.6080246 0.0017113172 557 127
-0.0091456501 -0.13400145 0.60508889 0.0016508488 553 126
-0.0063406732 -0.13371514 0.60380495 0.0018410473 543 124
-0.0035538301 -0.13366218 0.60357147 0.001715907 546 124
-0.00077319355 -0.13430408 0.60647261 0.0018523418 539 123
0.0020249442 -0.13433287 0.60660189 0.001716358 518 118
0.0047880071 -0.13335139 0.60216588 0.0016869216 533 121
0.0075213569 -0.1325669 0.59861648 0.0016846847 546 124
0.010270965 -0.13241339 0.59791291 0.0016180148 574 131
0.012796035 -0.13004294 0.58719599 0.0016122399 620 141
0.015436479 -0.12946846 0.58458543 0.00159575 631 144
0.018066177 -0.12898813 0.58239681 0.001517436 632 144
0.020728085 -0.12883238 0.58167034 0.0016138626 635 145
0.023370432 -0.12860471 0.58061558 0.0015363001 675 154
0.026057316 -0.12864374 0.58076137 0.0015720016 648 148
0.028617911 -0.12811014 0.57831818 0.001582145 620 141
0.030577149 -0.12520516 0.56516701 0.0014575344 683 156
0.033250451 -0.12545094 0.56623483 0.0014682784 675 154
0.036114801 -0.12632917 0.57015252 0.0015764036 637 145
0.039150666 -0.12764728 0.57605004 0.0015956353 620 141
0.041800663 -0.12761971 0.57586932 0.0015623701 611 139
0.044002634 -0.12630937 0.56989557 0.0015275218 632 144
0.046479225 -0.12589069 0.56794053 0.0015140031 639 146
0.048796244 -0.12510763 0.56433666 0.0015646032 659 150
0.050691478 -0.12337738 0.55645579 0.0015125069 702 160
0.052169822 -0.12084842 0.54496932 0.0013549428 753 172
0.054466952 -0.12036163 0.54268777 0.0013318069 781 178
0.056797411 -0.11998811 0.5409109 0.0013037312 807 184
0.059201438 -0.11979496 0.5399406 0.0013516371 820 187
0.061611984 -0.11963008 0.53909075 0.0013211139 790 180
0.063979514 -0.11939774 0.53792971 0.001296037 813 185
0.066561125 -0.11956736 0.53857172 0.0013411085 772 176
0.069061436 -0.11958397 0.53851587 0.0013460999 770 176
0.071772687 -0.11995195 0.54003298 0.0013649964 748 171
0.074624933 -0.12052289 0.54245359 0.001413062 725 165
0.077238142 -0.12068318 0.54301512 0.0014274621 704 161
0.079787627 -0.12073693 0.54308689 0.0015258726 692 158
0.082652315 -0.12124979 0.54521227 0.0015091805 711 162
0.085181735 -0.12125499 0.54504293 0.0014233929 714 163
0.086272113 -0.11927043 0.53592122 0.001363109 751 171
0.08834891 -0.11872251 0.53324717 0.0012717848 846 193
0.090401366 -0.1181726 0.53055394 0.0012334456 891 203
0.092623785 -0.11786816 0.52895135 0.0012134432 923 211
0.094664417 -0.11735407 0.52639651 0.001209509 913 208
0.096850708 -0.11704189 0.52473515 0.0012662921 924 211
0.09882912 -0.1165 0.52203178 0.001226878 893 204
0.1015823 -0.11687548 0.52342457 0.0013117886 800 182
0.10248498 -0.11515413 0.51541501 0.0013158326 796 182
0.10386264 -0.11403301 0.51008397 0.0012589919 861 196
0.10586461 -0.11363214 0.5079627 0.0012953231 878 200
0.1074177 -0.11277753 0.50380045 0.0013024677 888 203
0.10954574 -0.11255023 0.50242686 0.0013058442 880 201
0.11033373 -0.11098449 0.49506679 0.0012808938 892 204
0.11140175 -0.10975892 0.48921594 0.0011635767 977 223
0.11209431 -0.10822017 0.48196086 0.00113387 1021 233
0.1137181 -0.10762341 0.47889042 0.0011289252 1033 236
0.11545327 -0.10715309 0.47636795 0.0011288959 1026 234
0.11742152 -0.10691284 0.47485185 0.0011882473 1010 230
0.11966339 -0.10692602 0.47444248 0.0012061392 916 209
0.12544604 -0.11004479 0.48777831 0.0013240929 792 181
0.13000387 -0.11199647 0.49589604 0.0014817297 662 151
0.13381596 -0.11324823 0.50087667 0.0016446688 616 140
0.13616553 -0.11324029 0.50025666 0.0015747841 632 144
0.13922973 -0.11381686 0.50219202 0.0015168396 636 145
0.15012886 -0.1206717 0.53176332 0.0020738153 393 89
0.154203 -0.1219053 0.53649199 0.0022385526 349 79
0.15707758 -0.12216596 0.5369032 0.0020917391 402 91
0.15907364 -0.12174593 0.53429669 0.0017467705 506 115
0.16162403 -0.12175671 0.53355581 0.0016438243 547 125
0.16413403 -0.12173718 0.53265446 0.0018453344 494 112
0.16646811 -0.12158976 0.53116661 0.0018398573 488 111
0.16891348 -0.12152681 0.53002143 0.0017028794 516 118
0.17153351 -0.12158955 0.52939624 0.001782775 506 115
0.1734411 -0.12115277 0.52657127 0.0016727042 607 138
0.17455094 -0.12017931 0.52139705 0.0011940567 919 210
0.17730793 -0.12035139 0.52117217 0.0012301429 883 201
0.18386661 -0.12306317 0.53189522 0.0018011244 504 115
0.18453236 -0.12181044 0.52544522 0.0017453243 550 125
0.18950184 -0.12339403 0.53120214 0.0019033443 446 102
0.19165994 -0.12312914 0.52896643 0.0020407476 437 99
0.19345041 -0.12263818 0.52574426 0.0016306193 556 127
0.1984009 -0.12413719 0.53102356 0.0020217265 464 106
0.19923997 -0.12305829 0.52525377 0.0014352641 679 155
0.20671679 -0.12605444 0.53684407 0.0013331114 825 188
nan nan nan 0 676 154
nan nan nan 0 618 141
nan nan nan 0 703 160
nan nan nan 0 1001 228
nan nan nan 0 1452 255
nan nan nan 0 2551 255
nan nan nan 0 2662 255
nan nan nan 0 2584 255
nan nan nan 0 294 67
0.29731357 -0.1608655 0.66990113 0.0020758579 427 97
0.29588351 -0.15830746 0.65791702 0.0015791369 660 150
0.29724231 -0.15728152 0.65239346 0.0017362114 519 118
nan nan nan 0 329 75
0.29756677 -0.15405704 0.636769 0.002048726 438 100
0.30725312 -0.15737462 0.64946091 0.0022055705 361 82
nan nan nan 0 260 59
nan nan nan 0 265 60
0.3313362 -0.16444618 0.67606956 0.0021382007 374 85
0.33438447 -0.16426082 0.67467874 0.0019355303 432 98
0.33898333 -0.1648332 0.67652082 0.0024954323 295 67
0.34625024 -0.16667846 0.6837064 0.0037496951 186 42
0.35416868 -0.1687976 0.69213629 0.0050495658 134 30
0.35960609 -0.16970423 0.69572169 0.0049896589 127 29
0.36201274 -0.16917686 0.69355947 0.0056305928 128 29
0.36405075 -0.16848907 0.69086969 0.005372439 117 26
0.36899078 -0.16914466 0.69381744 0.0062582078 110 25
-0.48631161 -0.19326879 0.82580036 0.0332761 17 3
nan nan nan 0 19 4
nan nan nan 0 22 5
-0.49462762 -0.20168944 0.85610849 0.035117857 21 4
-0.49234331 -0.20251477 0.8579219 0.028863825 20 4
nan nan nan 0 22 5
nan nan nan 0 21 4
nan nan nan 0 23 5
nan nan nan 0 18 4
nan nan nan 0 17 3
-0.43693632 -0.1896835 0.79645848 0.028657762 17 3
-0.42795932 -0.18751825 0.7866345 0.028842853 24 5
-0.4197377 -0.18564633 0.77819294 0.021273158 29 6
-0.41503879 -0.18531173 0.7763418 0.022204712 34 7
-0.41004205 -0.18483643 0.77404553 0.015513499 41 9
-0.40788355 -0.18564375 0.77726579 0.015440449 49 11
-0.40602797 -0.18660605 0.78128183 0.011742873 52 11
nan nan nan 0 51 11
nan nan nan 0 57 13
nan nan nan 0 118 26
-0.21147583 -0.10114787 0.42426521 0.0041987705 155 35
-0.20559673 -0.099346817 0.41709608 0.0030479322 250 57
-0.20192616 -0.098586619 0.41436017 0.0024808689 306 69
-0.19904211 -0.098198496 0.41325247 0.0023590557 329 75
-0.1947744 -0.097112276 0.40926439 0.0024150796 336 76
-0.19249238 -0.097003415 0.4094491 0.0022525853 361 82
-0.19065365 -0.097117998 0.41063339 0.0021103607 380 86
-0.18853997 -0.097093493 0.4112817 0.0021878164 397 90
-0.18606611 -0.09688092 0.41117719 0.001969205 427 97
-0.18358305 -0.096658744 0.41106862 0.0018329433 468 107
-0.18073198 -0.096235573 0.41013402 0.0018834948 481 110
-0.17875047 -0.096271023 0.41117939 0.0017686292 505 115
-0.1766229 -0.096227728 0.41191173 0.0017390553 512 117
-0.17371349 -0.095752455 0.410808 0.0017032882 526 120
-0.17151734 -0.095663734 0.41137022 0.0018161396 525 120
-0.16983311 -0.095861815 0.41317511 0.0016610585 574 131
-0.16788283 -0.09591274 0.41435224 0.0015804075 628 143
-0.16586906 -0.095928177 0.41537687 0.0015388929 625 142
-0.16614078 -0.097282253 0.42220792 0.0016935286 538 123
-0.16617759 -0.098531216 0.42860171 0.00162971 573 131
-0.16584572 -0.099590681 0.4341839 0.0017083638 538 123
nan nan nan 0 457 104
nan nan nan 0 384 87
-0.26155236 -0.16332215 0.716685 0.0018540063 467 106
-0.25885382 -0.16381323 0.7203384 0.001725907 514 117
-0.25526416 -0.16374612 0.72150856 0.0016879226 539 123
-0.2517266 -0.163711 0.72278452 0.0016848816 542 123
-0.24799515 -0.16354704 0.72345412 0.0017197267 573 131
-0.2442826 -0.16339107 0.72411942 0.0015557174 632 144
-0.24109364 -0.16358583 0.72630179 0.0014380754 689 157
-0.23734228 -0.16339916 0.72675222 0.0014362732 755 172
-0.23353909 -0.1631707 0.72697484 0.0013115014 824 188
-0.22972465 -0.16292733 0.72708887 0.0012351198 892 204
-0.22634055 -0.16298643 0.72851247 0.0011311662 1035 236
-0.22199111 -0.16234142 0.72674608 0.0010252832 1209 255
-0.21874444 -0.16249521 0.72851402 0.0012058961 1006 230
-0.2162306 -0.16320708 0.73275185 0.0016480383 627 143
nan nan nan 0 374 85
nan nan nan 0 282 64
nan nan nan 0 306 69
nan nan nan 0 496 113
-0.14569777 -0.11957011 0.54026163 0.0014860146 684 156
-0.14221653 -0.11878706 0.53732729 0.0013778326 760 173
-0.13748309 -0.11691087 0.52941054 0.0012843075 834 190
-0.13502757 -0.1169383 0.53008151 0.0012702642 845 193
-0.13354173 -0.1178223 0.53461629 0.0013035751 816 186
-0.13108318 -0.11786549 0.5353176 0.0013351942 822 187
-0.12880999 -0.11808027 0.53677744 0.0012681241 844 193
-0.12551887 -0.11735192 0.53392649 0.0012327277 889 203
-0.12346303 -0.11777235 0.53628039 0.0012860678 853 195
-0.12190042 -0.11869044 0.54088521 0.0013126986 802 183
-0.1195818 -0.11889569 0.54222578 0.0014108166 794 181
-0.11814316 -0.12000363 0.5476684 0.0013806545 772 176
-0.11478232 -0.11916495 0.54420936 0.0013263631 790 180
-0.11248283 -0.11941513 0.54570335 0.0013515058 801 183
-0.11049818 -0.12001883 0.54879802 0.0013508974 764 174
-0.10823499 -0.12034141 0.55059296 0.0013806303 734 167
-0.10591244 -0.12061202 0.55213535 0.0014068171 715 163
-0.10351937 -0.12081375 0.55334777 0.001422763 704 161
-0.10051342 -0.12029231 0.5512321 0.0014195803 715 163
-0.097875252 -0.12019524 0.55104512 0.0013992416 727 166
-0.094833389 -0.11958391 0.5484851 0.0013869563 784 179
-0.092512123 -0.1198726 0.55003917 0.0014456132 752 171
-0.089836486 -0.11970547 0.5494889 0.0013530194 767 175
-0.08744242 -0.11991471 0.55065411 0.0013880729 761 174
-0.085215569 -0.12037273 0.55295104 0.0013427113 768 175
-0.082707062 -0.12044896 0.55348349 0.0013855899 776 177
-0.079843126 -0.11999588 0.5515722 0.0012890173 818 187
-0.077061221 -0.11964022 0.55009723 0.0012499964 858 196
-0.07447686 -0.11957745 0.54995847 0.0013301891 815 186
-0.071761928 -0.11929317 0.54879123 0.0012871021 826 188
-0.069203563 -0.11925787 0.54875994 0.0012829468 829 189
-0.066632673 -0.11919746 0.54860443 0.0013421277 832 190
-0.064036541 -0.11908533 0.54820251 0.001340094 807 184
-0.061616432 -0.11930481 0.54931951 0.0013943719 785 179
-0.059300888 -0.11975428 0.55148858 0.0014162981 771 176
-0.057050716 -0.12038206 0.55447274 0.0014479101 741 169
-0.054816514 -0.12110416 0.55788553 0.0014826499 714 163
-0.052424502 -0.12153161 0.55993539 0.0014289063 696 159
-0.050261725 -0.12256241 0.56475997 0.0014466982 684 156
-0.047690198 -0.12265474 0.56525499 0.0014497865 687 157
-0.045128565 -0.12278469 0.56591797 0.0014696757 701 160
-0.042428508 -0.12253083 0.56480664 0.0014490358 749 171
-0.039669335 -0.12206184 0.56269836 0.0013876546 777 177
-0.03709694 -0.12214214 0.56311756 0.0013313676 777 177
-0.034566112 -0.12238167 0.5642665 0.0013082594 805 184
-0.03197626 -0.12243424 0.56454939 0.0013603059 780 178
-0.029474903 -0.12286501 0.56657237 0.0014421786 760 173
-0.026859706 -0.12285893 0.56657708 0.0014144637 762 174
-0.024354422 -0.12340847 0.56914067 0.0014313993 762 174
-0.022070056 -0.12534551 0.57810026 0.0014545327 723 165
-0.019411949 -0.1254006 0.57837719 0.0014100308 710 162
-0.017051274 -0.12770079 0.5890063 0.0015249002 682 155
-0.014826082 -0.13207982 0.60922152 0.0017091611 588 134
-0.01201197 -0.13203356 0.60902232 0.001679631 548 125
-0.0091274437 -0.13094886 0.60403013 0.001650768 559 127
-0.006336235 -0.13083805 0.60352707 0.0015840107 592 135
-0.0035539581 -0.13088256 0.60373759 0.0016204948 570 130
-0.00077131245 -0.13118644 0.60514146 0.001711105 546 124
0.0020000364 -0.12991662 0.59928346 0.0016469267 569 130
0.0047004418 -0.12818553 0.59129471 0.0015848284 600 137
0.0074327039 -0.12827539 0.59170294 0.0016384798 589 134
0.010122486 -0.12778075 0.58941209 0.0015884177 602 137
0.012764249 -0.12701769 0.58588028 0.0015431273 620 141
0.015350879 -0.1260685 0.58148706 0.0015045083 644 147
0.017955795 -0.12552948 0.57898289 0.0015088306 637 145
0.020653471 -0.12569457 0.57972324 0.0014813554 666 152
0.023348249 -0.1258062 0.58021361 0.0015672101 643 147
0.026007008 -0.12572074 0.57979161 0.0014975504 643 147
0.028445559 -0.12468597 0.57498825 0.0015470647 616 140
0.030533783 -0.12242313 0.56451875 0.0014318433 700 160
0.033129502 -0.12239083 0.56433171 0.0014343723 695 158
0.035613008 -0.12197889 0.56239009 0.0014582874 679 155
0.038105283 -0.12165088 0.56083143 0.0016035375 670 153
0.040786114 -0.1219283 0.5620594 0.0014732343 659 150
0.043654881 -0.12270078 0.56556433 0.0015802799 648 148
0.046287045 -0.12275857 0.56576949 0.0016260081 636 145
0.049146518 -0.12338085 0.56857067 0.0015214676 638 145
0.051611081 -0.12299888 0.56673819 0.0015337224 637 145
0.053930473 -0.1223245 0.56355292 0.0015604502 649 148
0.054878321 -0.11874449 0.54697806 0.001432134 697 159
0.056945145 -0.11779422 0.54251343 0.0013643301 780 178
0.059309144 -0.1175129 0.54112381 0.0013249443 794 181
0.061738323 -0.11737825 0.54040295 0.0013324874 776 177
0.06411811 -0.11716381 0.53930759 0.0013287565 782 178
0.066481806 -0.11693713 0.53814852 0.0014440879 757 173
0.068981759 -0.1169578 0.53811979 0.0014085236 761 174
0.071344852 -0.11675308 0.5370456 0.0014408869 758 173
0.07390555 -0.11687463 0.53746343 0.0014683435 737 168
0.076300658 -0.11673493 0.53667045 0.001371576 761 174
0.078432433 -0.11621384 0.53411502 0.0013743658 748 171
0.080289446 -0.11532993 0.52988386 0.0013857253 740 169
0.082964592 -0.11563879 0.5311231 0.0014254421 744 170
0.085777953 -0.11611693 0.53312737 0.0013610163 754 172
0.088072687 -0.11588592 0.53186363 0.0013491081 839 191
0.090374112 -0.11567607 0.53068554 0.0012967411 867 198
0.092647575 -0.11544248 0.52938688 0.0012479811 899 205
0.094629414 -0.11486697 0.52650875 0.0012124339 918 209
0.096036345 -0.11364014 0.52063549 0.0012071904 934 213
0.098476544 -0.11366621 0.520491 0.0012988913 892 204
0.10089094 -0.11366196 0.52019304 0.0013689267 825 188
0.10328335 -0.11363372 0.51977038 0.0013082493 803 183
0.10401224 -0.1118184 0.5111627 0.0013268866 829 189
0.10590366 -0.11130609 0.50850224 0.0013034395 843 192
0.10777818 -0.11079884 0.50585145 0.0012696205 849 194
0.10936674 -0.11002561 0.50197327 0.0012487591 867 198
0.11047261 -0.10880935 0.49606317 0.0012125729 916 209
0.11151762 -0.10758431 0.4901036 0.0011650274 972 222
0.11205849 -0.10593197 0.48218957 0.0011504558 1001 228
0.11397602 -0.10562049 0.48036811 0.0011434075 1020 233
0.11552659 -0.10498761 0.47706965 0.0011179504 1037 237
0.11730574 -0.1045825 0.47479129 0.0011361233 1062 242
0.11949628 -0.10455243 0.4741976 0.0011407876 1012 231
0.12198931 -0.10478327 0.47476611 0.0012208651 922 210
0.12760216 -0.10763752 0.48718569 0.0014183535 766 175
0.13302033 -0.11022981 0.49837127 0.0015838783 640 146
0.13512708 -0.11003575 0.49692431 0.0015338217 681 155
0.13650249 -0.10926289 0.49284527 0.0014105584 713 163
0.14124288 -0.11116432 0.50079864 0.0015649118 602 137
nan nan nan 0 481 110
0.15545662 -0.11838667 0.53192902 0.0019020208 476 108
0.15800291 -0.11840743 0.53127843 0.0017310999 577 131
0.16175488 -0.11931689 0.5345819 0.0017625963 509 116
0.16756086 -0.12168998 0.54439294 0.0020939759 385 88
0.16693662 -0.11939197 0.53327858 0.0019897947 449 102
0.16903107 -0.11907812 0.53101665 0.0015703508 597 136
0.1717474 -0.11920516 0.53069383 0.0015904206 585 133
0.17429553 -0.11921344 0.52981293 0.0015204926 620 141
0.17547739 -0.11830039 0.52481645 0.0013609434 745 170
0.18317878 -0.12174627 0.53910905 0.001977369 448 102
0.18459633 -0.12097785 0.53469062 0.002065595 417 95
0.18557598 -0.11994752 0.52910298 0.0016075301 569 130
0.1877443 -0.11970302 0.52696699 0.0018279274 513 117
0.19153057 -0.12048285 0.52931094 0.0020405031 446 102
0.1998716 -0.12406943 0.54392236 0.0021007436 386 88
0.19948427 -0.12221501 0.53464252 0.0020298902 416 95
nan nan nan 0 765 174
nan nan nan 0 1115 255
nan nan nan 0 847 193
nan nan nan 0 368 84
nan nan nan 0 371 84
nan nan nan 0 549 125
nan nan nan 0 1024 234
nan nan nan 0 2481 255
nan nan nan 0 2584 255
nan nan nan 0 602 137
nan nan nan 0 223 51
nan nan nan 0 416 95
0.2940276 -0.15403746 0.6544857 0.0015205139 632 144
0.30195951 -0.15644921 0.66341043 0.001356885 748 171
0.30507362 -0.15633941 0.66169232 0.0016307832 564 128
0.30361176 -0.15391226 0.65026313 0.0021056277 393 89
0.27052027 -0.13567373 0.57226288 0.002801134 278 63
nan nan nan 0 295 67
nan nan nan 0 369 84
0.33205113 -0.161368 0.67788267 0.0023496333 372 85
0.33562165 -0.16143416 0.67746753 0.0024651573 303 69
0.3449873 -0.16425818 0.68873709 0.0039001752 170 38
0.35056686 -0.16524102 0.69240135 0.0047402321 154 35
0.35518441 -0.16575538 0.69422948 0.0048287394 130 29
0.3608433 -0.16674079 0.69816077 0.0062515619 121 27
0.36405602 -0.16658771 0.69745767 0.0062700482 107 24
0.3657552 -0.16575167 0.69402832 0.0073147733 103 23
0.36548641 -0.16404827 0.68709546 0.0069018044 94 21
nan nan nan 0 24 5
-0.52168125 -0.20464486 0.89056075 0.029351722 21 4
nan nan nan 0 24 5
-0.50201178 -0.20034555 0.86818546 0.027240265 24 5
-0.5007416 -0.20158738 0.87188804 0.026066646 24 5
nan nan nan 0 21 4
nan nan nan 0 28 6
nan nan nan 0 21 4
nan nan nan 0 19 4
nan nan nan 0 20 4
nan nan nan 0 16 3
nan nan nan 0 23 5
-0.41200471 -0.17834936 0.76364541 0.024436731 27 6
nan nan nan 0 29 6
-0.40680623 -0.17947657 0.76784837 0.019241149 30 6
-0.40693569 -0.18127207 0.77543539 0.015577221 39 8
-0.3998524 -0.1798583 0.76944172 0.013565129 45 10
nan nan nan 0 50 11
nan nan nan 0 70 16
-0.21623278 -0.10020323 0.4292599 0.0046040691 138 31
-0.20850925 -0.0976073 0.41848773 0.0035626558 204 46
-0.20155542 -0.095322013 0.40910438 0.0025122822 296 67
-0.1998331 -0.095489107 0.41030869 0.0025977336 324 74
-0.19725749 -0.095247678 0.40982533 0.0023984511 346 79
-0.19460329 -0.094962776 0.40921587 0.0021896628 363 83
-0.19195916 -0.09467674 0.40865707 0.0020857996 384 87
-0.18962348 -0.094538279 0.40878654 0.0021596698 420 96
-0.18763454 -0.094571546 0.40970683 0.0019786567 427 97
-0.18559611 -0.094580337 0.41056487 0.002002703 445 101
-0.18268842 -0.094141379 0.40951315 0.0018835731 503 115
-0.18005909 -0.093837552 0.4090744 0.0017809153 514 117
-0.1783075 -0.093989439 0.41064712 0.0017329219 511 116
-0.17611566 -0.093910076 0.41123119 0.0016956717 534 122
-0.17311999 -0.093395203 0.40991768 0.0016621219 564 128
-0.17073965 -0.093204029 0.41002849 0.0015861064 606 138
-0.16783573 -0.092718996 0.40884563 0.0015183536 711 162
-0.16596431 -0.092799515 0.41015443 0.0014247227 704 161
-0.16587703 -0.093891881 0.41594547 0.0015636766 637 145
-0.16751289 -0.09599898 0.42625916 0.0020528981 397 90
-0.16420574 -0.095290743 0.42407778 0.0018143844 491 112
-0.16557302 -0.097311683 0.43404382 0.0016795112 545 124
nan nan nan 0 417 95
nan nan nan 0 403 92
-0.26228723 -0.16029669 0.71963173 0.0019810004 441 100
-0.25884244 -0.16032119 0.72123241 0.0017680917 497 113
-0.25518835 -0.16021495 0.72221029 0.0017809309 498 113
-0.25177753 -0.16026059 0.72383666 0.001835429 514 117
-0.24832971 -0.16028364 0.72532475 0.0017515521 528 120
-0.24510621 -0.16045418 0.72744405 0.0017134821 530 121
-0.24077672 -0.15989521 0.72621417 0.0017159017 567 129
-0.23743396 -0.15998474 0.72788668 0.0016356333 615 140
-0.23359039 -0.15973441 0.72797269 0.0014854941 650 148
-0.22981308 -0.15952256 0.72819108 0.001424582 704 161
-0.22626834 -0.15946811 0.72908688 0.0013537784 772 176
-0.22298969 -0.15960246 0.73080742 0.0013349385 839 191
-0.21865958 -0.15897655 0.72900492 0.0011923057 945 216
-0.21396679 -0.15806262 0.72583342 0.0010306041 1216 255
-0.20787778 -0.1560706 0.71765578 0.0011884373 950 217
nan nan nan 0 620 141
nan nan nan 0 632 144
-0.14645715 -0.11561767 0.53363752 0.0014100991 720 164
-0.141711 -0.11382409 0.52596343 0.0013621071 809 185
-0.1433623 -0.1171966 0.54214406 0.0014053134 724 165
-0.13999745 -0.11651631 0.5395661 0.0013759837 745 170
-0.13648295 -0.11568411 0.53625345 0.0013768062 760 173
-0.13367514 -0.11543092 0.53559661 0.0013320104 794 181
-0.1310233 -0.11530529 0.53550768 0.001314307 831 190
-0.12886144 -0.11561437 0.53741646 0.0014244819 781 178
-0.12630703 -0.11557654 0.53769267 0.0014196878 776 177
-0.12348692 -0.11528914 0.53678578 0.0012970347 814 186
-0.12121835 -0.1155154 0.53825039 0.0012977655 841 192
-0.1190724 -0.11587056 0.54029828 0.0013172888 795 181
-0.11680592 -0.11612124 0.54184216 0.0013198239 794 181
-0.11444858 -0.11629068 0.54299009 0.0014196645 767 175
-0.11198209 -0.11635437 0.54362714 0.001368886 781 178
-0.11004824 -0.11698721 0.54690826 0.0013612232 758 173
-0.1077568 -0.11726088 0.54849637 0.0014646926 714 163
-0.10587233 -0.11800138 0.55225444 0.0015093873 686 156
-0.1036265 -0.1183659 0.55424017 0.0014219184 703 160
-0.10091541 -0.11820402 0.55374658 0.0014307514 698 159
-0.09813375 -0.11794885 0.5528006 0.0014213213 705 161
-0.095373735 -0.11770672 0.5519008 0.0014025585 717 163
-0.092487238 -0.11729084 0.55017185 0.0013672105 752 171
-0.089858107 -0.11718701 0.54989308 0.0013874938 762 174
-0.087416768 -0.1173292 0.55075657 0.0014437601 754 172
-0.085183375 -0.11776738 0.55299884 0.0013810801 757 173
-0.082499802 -0.11759107 0.5523448 0.0013557939 761 174
-0.079954557 -0.11760695 0.55258268 0.0013462201 790 180
-0.076823838 -0.11673424 0.54863411 0.0012757945 856 195
-0.074323304 -0.11679221 0.5490489 0.0012765849 849 194
-0.071811087 -0.11683527 0.54938459 0.0012810458 824 188
-0.069258004 -0.11681255 0.549402 0.0012669699 843 192
-0.066557929 -0.11653076 0.54819244 0.0012442134 868 198
-0.064039372 -0.11655705 0.54842383 0.0012841302 833 190
-0.061564796 -0.11666883 0.54905027 0.0013123831 798 182
-0.059122715 -0.11685445 0.55001724 0.0014022983 782 178
-0.056712605 -0.11712276 0.55136693 0.0014281285 767 175
-0.054691017 -0.11825638 0.55678481 0.0014820008 724 165
-0.052306715 -0.11867886 0.55884916 0.0014890389 707 161
-0.049833566 -0.11893314 0.56011611 0.0014167469 705 161
-0.048033714 -0.12091004 0.56949151 0.0015491361 650 148
-0.045598876 -0.12142492 0.57197666 0.001514046 638 145
-0.042771157 -0.12089257 0.56952381 0.0014299192 705 161
-0.039776113 -0.11978662 0.56436324 0.0013942748 730 166
-0.037171669 -0.11978444 0.56439835 0.001357855 757 173
-0.034590699 -0.11986329 0.56481081 0.0014140811 751 171
-0.032071389 -0.12018603 0.56636888 0.0014696235 748 171
-0.029313181 -0.11959136 0.56359977 0.0014612216 751 171
-0.026809754 -0.12002156 0.56565714 0.0013958231 767 175
-0.024357153 -0.12079658 0.56933653 0.0013742915 748 171
-0.021902112 -0.12174533 0.5738318 0.0014114336 718 164
-0.019369546 -0.12246471 0.57724321 0.0014420232 691 158
-0.016782643 -0.12301502 0.57985491 0.0014704582 662 151
-0.01442324 -0.1257575 0.59279746 0.0015250839 637 145
-0.011830544 -0.12727287 0.59995341 0.0015879318 597 136
-0.0090834759 -0.12754564 0.6012491 0.0015885337 594 135
-0.0063240216 -0.12780772 0.60249186 0.0016784287 579 132
-0.0035539097 -0.12809637 0.60385728 0.0016471702 568 129
-0.00077004207 -0.12818407 0.60427266 0.0017056987 578 132
0.0019735927 -0.12547158 0.59148514 0.001652281 610 139
0.0046894271 -0.12516449 0.59003437 0.0015220497 637 145
0.0073221996 -0.12367988 0.58303022 0.0015281172 633 144
0.0099953115 -0.12349107 0.58213198 0.0015041083 645 147
0.012634492 -0.12305173 0.58005011 0.0014983409 654 149
0.015278109 -0.12280157 0.57885748 0.0014722151 680 155
0.017933067 -0.12270342 0.57837862 0.0015727315 656 150
0.020569699 -0.12252152 0.57750207 0.0015650436 664 151
0.023358382 -0.12318321 0.58059859 0.0015521118 634 144
0.025974236 -0.12289106 0.57919639 0.0015994395 607 138
0.028431777 -0.12197423 0.5748468 0.0016511101 613 140
0.030445863 -0.11947364 0.56303066 0.0014372711 693 158
0.032858912 -0.11880869 0.55986214 0.0014535495 720 164
0.035155453 -0.11785003 0.55530655 0.0014240879 707 161
0.037643801 -0.11762092 0.55418491 0.0014858078 679 155
0.040189456 -0.11758862 0.55398643 0.0014685813 673 153
0.04280664 -0.11775698 0.55472875 0.0014655284 672 153
0.045007952 -0.11682682 0.55029196 0.0014831575 663 151
0.048478499 -0.11911464 0.56100714 0.001503169 643 147
0.0511274 -0.11925397 0.56159663 0.0016242182 641 146
0.053885292 -0.11962182 0.56325638 0.0016028195 630 144
0.056942917 -0.12059057 0.56773847 0.0015678626 620 141
0.05849988 -0.11843588 0.55751014 0.001470671 670 153
0.059808154 -0.11598057 0.54586339 0.0014470584 719 164
0.062120542 -0.11559234 0.54394066 0.0014112197 759 173
0.064488739 -0.11533408 0.5426228 0.0013890727 732 167
0.066691518 -0.11481039 0.54004931 0.0013908196 733 167
0.068937682 -0.11439648 0.53798515 0.0013724476 745 170
0.071331508 -0.11424788 0.53716087 0.0013893015 746 170
0.073665954 -0.11401736 0.53594315 0.001414998 746 170
0.075768538 -0.11345468 0.53315586 0.0013544335 763 174
0.077919595 -0.11299776 0.53085726 0.0013509301 792 181
0.080504 -0.11317801 0.53154236 0.0013659428 755 172
0.082453504 -0.11248144 0.52809989 0.0013496707 767 175
0.084944546 -0.11254247 0.52820438 0.0013991445 777 177
0.088032611 -0.11336893 0.53188837 0.0013274642 785 179
0.090413421 -0.11326436 0.53119117 0.0012838935 824 188
0.09231393 -0.11257963 0.52776206 0.0012399029 880 201
0.094441399 -0.11219988 0.52575189 0.0012358457 908 207
0.095818184 -0.11096986 0.5197475 0.0012298258 955 218
0.098318599 -0.11106962 0.51996022 0.0012149119 905 206
0.10067257 -0.11100309 0.51937997 0.0012642004 860 196
0.10308138 -0.11099875 0.51907605 0.0012774427 830 189
0.10553023 -0.11103674 0.51895446 0.001379822 796 182
0.1061504 -0.10919195 0.51002264 0.0012978775 815 186
0.10744774 -0.1081092 0.50464219 0.0013299318 863 197
0.10949368 -0.10780987 0.50290626 0.0012987256 884 202
0.10978764 -0.10583419 0.49334085 0.0011965941 931 212
0.11059969 -0.10442881 0.48642781 0.0011947642 958 219
0.11221708 -0.10382506 0.48323807 0.001145985 998 228
0.11390366 -0.10330787 0.48043716 0.0011190196 1039 237
0.11507913 -0.10235608 0.47560224 0.0011533306 1032 236
0.11690816 -0.10201066 0.47357091 0.0011546287 1060 242
0.11938667 -0.10223428 0.47416228 0.0011260726 1038 237
0.12140654 -0.10206416 0.47290722 0.0011767151 1005 229
0.12441022 -0.10271236 0.47542074 0.0012321186 888 203
0.12919606 -0.10478313 0.48448423 0.0013907867 746 170
0.1316434 -0.10491836 0.48456511 0.0014437259 717 163
0.13368776 -0.1047333 0.48314428 0.0013620168 780 178
0.1373789 -0.10582294 0.48757541 0.0013676302 748 171
0.1411534 -0.10693987 0.49209562 0.0015447506 670 153
nan nan nan 0 563 128
0.158114 -0.11596987 0.53220975 0.0018127058 474 108
0.16521129 -0.11927386 0.54659045 0.0024998807 342 78
0.16553542 -0.11766144 0.53840142 0.0024135795 310 70
0.16933261 -0.11852913 0.54153734 0.0024034327 363 83
0.16944756 -0.11683197 0.5329321 0.001713574 527 120
0.17195849 -0.11681255 0.53196377 0.0017128995 515 117
0.17741832 -0.11876772 0.53994387 0.0016859602 534 122
0.1762324 -0.11628181 0.52770942 0.001281116 818 187
0.18039991 -0.11734857 0.53158063 0.0017365371 544 124
0.18596196 -0.11928008 0.53931588 0.0019341877 443 101
0.19030961 -0.12039023 0.54328334 0.0020154947 449 102
0.19324526 -0.12058913 0.54309976 0.0020152731 418 95
0.19729392 -0.12146798 0.54594249 0.0019692953 465 106
0.20020749 -0.12163398 0.54554653 0.0021881564 367 83
0.20365036 -0.12211305 0.54652512 0.0019585884 426 97
nan nan nan 0 767 175
nan nan nan 0 788 180
nan nan nan 0 241 55
nan nan nan 0 125 28
nan nan nan 0 201 45
nan nan nan 0 246 56
nan nan nan 0 264 60
nan nan nan 0 328 75
nan nan nan 0 637 145
0.29898062 -0.15860309 0.69381434 0.0014631104 676 154
0.29697093 -0.15574117 0.67976558 0.0026201685 318 72
nan nan nan 0 419 95
nan nan nan 0 673 153
0.30235681 -0.15332232 0.66495597 0.0015814613 594 135
0.30449232 -0.15272184 0.66105795 0.0021549163 410 93
0.30391592 -0.1507888 0.65148675 0.0022848891 372 85
0.27121732 -0.13312951 0.57419872 0.0027519595 294 67
nan nan nan 0 377 86
nan nan nan 0 401 91
0.33326212 -0.15851101 0.68073237 0.0022416722 345 78
0.34100869 -0.16053583 0.68866223 0.0036312253 194 44
0.34955576 -0.16289261 0.69812 0.0041760718 157 35
0.35299346 -0.16284509 0.69739288 0.0047272081 134 30
0.35775554 -0.16340339 0.69939083 0.0061674011 118 26
0.36132225 -0.16341008 0.69916064 0.0057446645 110 25
0.36452141 -0.1632521 0.69836092 0.0059624147 102 23
0.36725989 -0.1628928 0.69683516 0.0060550412 98 22
0.36980328 -0.16245465 0.69510496 0.0060850941 98 22
-0.54157567 -0.20607392 0.91797793 0.02827559 27 6
-0.53123766 -0.20386384 0.90609902 0.021251775 30 6
-0.52734035 -0.20410866 0.90525907 0.021231597 24 5
-0.52550948 -0.20516443 0.90811765 0.022688264 25 5
nan nan nan 0 28 6
-0.51814252 -0.2058599 0.90790176 0.027790964 26 5
-0.51567215 -0.2067032 0.91016239 0.031570647 22 5
-0.51322901 -0.20757261 0.91266418 0.03500241 23 5
-0.50633419 -0.20664109 0.90739167 0.025496816 24 5
nan nan nan 0 20 4
nan nan nan 0 18 4
nan nan nan 0 26 5
-0.39632475 -0.16783263 0.7344088 0.028075507 26 5
-0.39265832 -0.16785944 0.73421723 0.02707723 21 4
-0.39290574 -0.16957599 0.74155414 0.030428439 26 5
nan nan nan 0 34 7
-0.37781486 -0.16625151 0.72710258 0.019262694 39 8
-0.36735359 -0.16324431 0.71420163 0.013504894 41 9
nan nan nan 0 97 22
-0.214615 -0.097291753 0.42620167 0.004200533 150 34
-0.20719939 -0.094885811 0.4160454 0.0028709476 261 59
-0.20169471 -0.093314469 0.40960652 0.0024266017 312 71
-0.19873251 -0.09289901 0.40830234 0.0023807404 355 81
-0.19674763 -0.092936479 0.40905359 0.0021961285 361 82
-0.19442967 -0.09281572 0.40917042 0.002233105 378 86
-0.19158232 -0.092436969 0.40820387 0.0020707271 417 95
-0.18889114 -0.092126153 0.40758434 0.0020546408 460 105
-0.18662067 -0.092015974 0.40789557 0.0018620845 460 105
-0.18468142 -0.092068486 0.40896851 0.0018361751 476 108
-0.18233927 -0.091919057 0.40917882 0.0017025943 524 119
-0.17876318 -0.091137148 0.40659398 0.0016182943 578 132
-0.17758939 -0.091576107 0.40947619 0.0017194243 552 126
-0.17499129 -0.091282278 0.40910161 0.0016351356 603 137
-0.17251842 -0.091047622 0.40900001 0.0014992995 646 147
-0.16955449 -0.090545177 0.40769601 0.0013218529 794 181
-0.16677533 -0.090130523 0.40678167 0.0012613946 860 196
-0.16542163 -0.090485521 0.40934026 0.0013029432 826 188
-0.16415836 -0.090899304 0.41216913 0.0014138054 710 162
-0.16518657 -0.092608072 0.42088512 0.0017645105 543 124
-0.16559581 -0.09400858 0.42822242 0.0019126578 472 107
nan nan nan 0 513 117
nan nan nan 0 371 84
-0.26539066 -0.15658765 0.71799421 0.0019890624 433 99
-0.26213792 -0.15672311 0.72013021 0.001880746 455 104
-0.25889361 -0.15686733 0.72227544 0.0018636653 466 106
-0.25541833 -0.15687364 0.72375184 0.0018799959 456 104
-0.25162065 -0.15667936 0.72426444 0.0018969896 457 104
-0.24819614 -0.15671526 0.72580177 0.0018156479 481 110
-0.24429202 -0.15644506 0.72588062 0.0017536887 518 118
-0.24087967 -0.1564865 0.7273643 0.001883705 518 118
-0.23734801 -0.15645052 0.72844887 0.0016937301 532 121
-0.23372926 -0.15635522 0.7292161 0.00165693 573 131
-0.22974898 -0.15601155 0.72878194 0.001520602 633 144
-0.226136 -0.1559106 0.72943896 0.0014986648 658 150
-0.22275443 -0.15596849 0.7307995 0.0015334333 678 155
-0.21780671 -0.15491432 0.72690392 0.0014497511 690 157
-0.21113524 -0.15258059 0.71694392 0.0015143743 643 147
nan nan nan 0 377 86
nan nan nan 0 449 102
-0.14673239 -0.11140542 0.52548009 0.001467286 716 163
-0.14385872 -0.11109782 0.52464575 0.0012966491 828 189
-0.14148422 -0.11117174 0.52558666 0.0012617891 861 196
-0.13934356 -0.11143528 0.52740145 0.0013372431 836 191
-0.137382 -0.11185417 0.52993101 0.0013325739 783 179
-0.13553712 -0.11238526 0.53297335 0.0014059453 782 178
-0.13386849 -0.11308517 0.53679907 0.0013665698 761 174
-0.13050488 -0.11235262 0.53380275 0.0013092122 805 184
-0.12794489 -0.11229685 0.53399688 0.0013481424 831 190
-0.12638634 -0.11313529 0.53842527 0.0014152185 772 176
-0.12408888 -0.1133329 0.53978753 0.0013411756 767 175
-0.12153926 -0.11330363 0.54004973 0.0014040851 801 183
-0.11921866 -0.11349116 0.54132652 0.001330792 794 181
-0.11670162 -0.11349573 0.5417127 0.0013423832 795 181
-0.11395326 -0.11327057 0.54098362 0.0013551639 769 175
-0.11156362 -0.11339986 0.5419296 0.0014473398 741 169
-0.10964459 -0.11402453 0.5452283 0.0014383325 731 167
-0.10740141 -0.11433368 0.54700446 0.001495139 723 165
-0.10494139 -0.11442138 0.54770637 0.0014670232 735 168
-0.10301844 -0.11511356 0.55128837 0.0014604402 747 170
-0.1003338 -0.11496822 0.55084592 0.0013663018 771 176
-0.09790387 -0.11511476 0.55178779 0.0013483821 769 175
-0.095032074 -0.11473568 0.55019629 0.0013653811 747 170
-0.092287108 -0.11449304 0.5492447 0.0013662959 768 175
-0.089849018 -0.11462817 0.55009276 0.001322845 791 180
-0.087493457 -0.11487953 0.55148733 0.0013830261 731 167
-0.084926307 -0.11485983 0.55156946 0.0013763232 746 170
-0.082595594 -0.11516859 0.55321842 0.0014649889 738 168
-0.079603694 -0.1145457 0.5503813 0.0013333416 776 177
-0.077023983 -0.11449434 0.5502795 0.0013209183 806 184
-0.074379481 -0.1143399 0.5496726 0.0013112953 836 191
-0.071872063 -0.11439272 0.55005282 0.0012836807 823 188
-0.069306664 -0.11435373 0.54998308 0.0013170476 792 181
-0.066602804 -0.11407463 0.54875004 0.0013608102 816 186
-0.064052299 -0.11404648 0.54871631 0.0012965316 818 187
-0.061613906 -0.11422388 0.54966414 0.0013320164 787 179
-0.058953635 -0.11398751 0.54861403 0.0013407945 769 175
-0.05634889 -0.11384209 0.54799491 0.0013390501 778 177
-0.054031394 -0.1142906 0.55022866 0.0013662045 747 170
-0.052211307 -0.1158874 0.55798608 0.0014100136 712 162
-0.049652953 -0.11592624 0.55823743 0.0014243094 709 162
-0.04754274 -0.11707286 0.56381851 0.0014971284 672 153
-0.045582578 -0.11874308 0.57191771 0.0015149035 634 144
-0.042862333 -0.11851686 0.57087874 0.0015777191 655 149
-0.040204916 -0.11844613 0.57058406 0.0014695276 676 154
-0.037662372 -0.11872765 0.57198209 0.0014681239 669 153
-0.034793109 -0.117944 0.56824446 0.0015446426 692 158
-0.032327678 -0.11851314 0.57102066 0.0014249259 711 162
-0.029568104 -0.11800927 0.56862348 0.0014174355 704 161
-0.027012903 -0.11830238 0.57006305 0.0014336142 695 158
-0.024466423 -0.11870102 0.57200825 0.0014193089 714 163
-0.021892933 -0.11904909 0.57370692 0.0014274266 698 159
-0.019380068 -0.1198678 0.57767099 0.001479688 654 149
-0.016813295 -0.12056086 0.58102709 0.0014689026 673 153
-0.014457381 -0.12331516 0.59431481 0.0015561291 615 140
-0.011792286 -0.12410375 0.59812671 0.0016852943 612 139
-0.009077861 -0.12469609 0.60099047 0.0015660182 609 139
-0.0063042422 -0.12463856 0.60071963 0.0015571282 612 139
-0.0035251824 -0.12429905 0.59908736 0.001508303 644 147
-0.00075018778 -0.12216459 0.58880162 0.0015107259 640 146
0.0019501385 -0.12128556 0.58456451 0.001477332 660 150
0.0046133604 -0.12045769 0.58057159 0.0015590203 688 157
0.0072439704 -0.11969884 0.57690924 0.0015025899 684 156
0.0099647101 -0.12043694 0.58045936 0.0015666196 667 152
0.012636618 -0.12039725 0.58025843 0.001475909 672 153
0.015274055 -0.12010039 0.57881564 0.0014819842 662 151
0.017910259 -0.11988359 0.57775623 0.0014825634 653 149
0.020690696 -0.12056335 0.58101505 0.001531362 626 143
0.023416847 -0.12080722 0.58217013 0.0015653403 599 136
0.026102167 -0.12081193 0.58216983 0.00160638 573 131
0.028491406 -0.11957318 0.57617468 0.0015693876 600 137
0.030606162 -0.11749205 0.56611806 0.0015080402 643 147
0.032988805 -0.11668561 0.56220067 0.0014873209 673 153
0.035296187 -0.11574987 0.55765736 0.0014870174 655 149
0.037715144 -0.1152823 0.5553661 0.0014991004 659 150
0.040031221 -0.11457972 0.55193919 0.0015480628 651 148
0.042430926 -0.11418623 0.54999751 0.0015543241 663 151
0.044819813 -0.11380967 0.54813308 0.0014730992 667 152
0.047297113 -0.11368585 0.54748148 0.0015712867 666 152
0.049765836 -0.113555 0.5467912 0.0014971161 648 148
0.052732028 -0.11451714 0.55135816 0.0015345898 628 143
0.056027606 -0.11607307 0.55877674 0.0015285166 636 145
0.058736414 -0.11632995 0.5599345 0.0015315717 629 143
0.060873784 -0.11548111 0.55576396 0.0015184447 646 147
0.062671676 -0.11408298 0.54894489 0.0014486404 689 157
0.064478584 -0.11280935 0.54271984 0.0014744663 719 164
0.066772103 -0.1124505 0.5408901 0.0014980523 705 161
0.069088161 -0.11215415 0.53935361 0.0013933172 730 166
0.071424022 -0.11190946 0.53805804 0.0014747558 736 168
0.073109515 -0.11069648 0.5320999 0.0014019242 749 171
0.075503901 -0.1106009 0.53150553 0.0014283994 757 173
0.078046829 -0.11072207 0.53194338 0.0013502174 761 174
0.080093883 -0.11015386 0.52906013 0.0013465749 764 174
0.082236424 -0.10974677 0.52694178 0.0013931838 772 176
0.084631786 -0.10969079 0.52649945 0.0013478961 789 180
0.087280869 -0.10995761 0.52759486 0.001365775 793 181
0.090245746 -0.1105969 0.53046417 0.0012956486 819 187
0.092216074 -0.11001579 0.52746773 0.0012859103 830 189
0.094149455 -0.10942173 0.52439874 0.0012738974 894 204
0.096174844 -0.10896183 0.52196181 0.0012298382 938 214
0.097794823 -0.1080765 0.51747614 0.0011835386 949 217
0.10029964 -0.10818801 0.51775122 0.0012634654 913 208
0.10273688 -0.10822311 0.51764554 0.0012371053 880 201
0.10525212 -0.10833691 0.51790076 0.0012970847 816 186
0.10648429 -0.10715449 0.51194662 0.0012982907 823 188
0.10848477 -0.10677999 0.50984079 0.0012966527 826 188
0.10925642 -0.10523791 0.50214928 0.001263187 850 194
0.10985453 -0.10359678 0.49397844 0.0012799988 921 210
0.11070332 -0.1022546 0.48722571 0.0011614986 977 223
0.11266197 -0.10197092 0.48550463 0.0011697742 967 221
0.11420978 -0.10133392 0.48208648 0.0011579564 985 225
0.11581197 -0.10076885 0.47899672 0.0011842531 994 227
0.11736777 -0.10018561 0.47580618 0.0011619979 978 223
0.11927742 -0.099920534 0.47411072 0.0011271364 1049 239
0.12093464 -0.099457532 0.47145942 0.0011392239 1027 234
0.1230208 -0.099357575 0.47051126 0.0012196895 966 220
0.12707673 -0.10082398 0.47695279 0.0012656582 846 193
0.13046168 -0.10171644 0.48064539 0.0013469685 795 181
0.13292918 -0.10187538 0.4808439 0.0013343319 782 178
0.13482612 -0.10159905 0.47896555 0.001304194 809 185
0.13707358 -0.10159162 0.47833306 0.0013728428 799 182
0.14055073 -0.10248104 0.48189384 0.0013750849 763 174
nan nan nan 0 479 109
0.16129726 -0.11391693 0.53419214 0.0019532912 418 95
0.16574307 -0.11524825 0.53964591 0.0022141428 354 80
0.16991119 -0.11634889 0.54397357 0.0023967512 347 79
0.17214334 -0.11611073 0.54200649 0.0024168426 310 70
0.174998 -0.1162933 0.54197437 0.0023186393 334 76
0.1780283 -0.11658557 0.54242021 0.0018358552 467 106
0.17720984 -0.11438517 0.53125465 0.0013628742 745 170
0.17970699 -0.11435687 0.53016663 0.0013925659 715 163
0.1828844 -0.11475621 0.5310294 0.0013743138 735 168
0.19065213 -0.11798533 0.5449267 0.0021328044 402 91
0.19284424 -0.11772312 0.54264468 0.0021810753 364 83
0.19515412 -0.11753889 0.54069906 0.0016691965 593 135
0.19661234 -0.11685337 0.5364297 0.0014379114 684 156
nan nan nan 0 692 158
nan nan nan 0 601 137
nan nan nan 0 202 46
nan nan nan 0 186 42
nan nan nan 0 400 91
nan nan nan 0 499 114
nan nan nan 0 510 116
nan nan nan 0 476 108
nan nan nan 0 299 68
nan nan nan 0 1018 232
nan nan nan 0 1900 255
0.30343696 -0.15567315 0.69537479 0.0011146511 1052 240
nan nan nan 0 535 122
0.29607585 -0.14851078 0.66045952 0.0018531481 473 108
0.27721727 -0.13751867 0.61029017 0.0026927411 290 66
0.27925357 -0.13701853 0.60684645 0.002338062 370 84
nan nan nan 0 391 89
nan nan nan 0 363 83
nan nan nan 0 450 102
0.32816198 -0.15428758 0.67863733 0.0021154184 395 90
0.3381885 -0.15735774 0.69119823 0.0033886039 229 52
0.34740463 -0.15999185 0.7019276 0.0041230274 160 36
0.35160163 -0.16028453 0.70249337 0.0056404481 126 28
0.35590529 -0.16061947 0.70337069 0.0056912457 110 25
0.3586013 -0.16022944 0.70120609 0.0064991545 106 24
0.36002025 -0.15928207 0.69674033 0.0058681271 113 25
0.36402398 -0.15948562 0.69744629 0.0063867122 107 24
0.36719581 -0.15932424 0.69669211 0.0060129878 108 24
0.36639637 -0.1574593 0.68862277 0.0062016565 98 22
-0.50411463 -0.18755749 0.85374814 0.024004966 24 5
-0.52763081 -0.19798066 0.89920706 0.029021801 22 5
-0.52982599 -0.20051414 0.90881336 0.027594231 22 5
-0.53021687 -0.20240274 0.91557288 0.02405067 27 6
-0.53377342 -0.20554344 0.92807716 0.025624776 27 6
-0.52271461 -0.20306192 0.9153201 0.029251713 24 5
-0.5130446 -0.20108046 0.9049859 0.032094397 24 5
-0.5078944 -0.20085083 0.90269178 0.024744356 28 6
-0.5052048 -0.2015989 0.9049347 0.026966475 26 5
nan nan nan 0 22 5
nan nan nan 0 19 4
nan nan nan 0 22 5
-0.39178699 -0.1622245 0.72585535 0.030254789 22 5
-0.38618806 -0.1614251 0.72203124 0.032623366 23 5
-0.38842186 -0.16391583 0.73306215 0.026659727 29 6
-0.38473561 -0.16393231 0.7331695 0.024128849 27 6
nan nan nan 0 28 6
nan nan nan 0 44 10
nan nan nan 0 123 28
-0.21022414 -0.093183674 0.41764542 0.0034943558 211 48
-0.2036663 -0.091195464 0.40914676 0.0023825946 326 74
-0.20110008 -0.090972058 0.40862897 0.002304564 336 76
-0.19874081 -0.090838619 0.40858302 0.0021133872 382 87
-0.19616997 -0.090604655 0.4081482 0.0021310281 394 90
-0.19352633 -0.090331726 0.40759513 0.0020720186 425 97
-0.19059351 -0.089916542 0.40645033 0.0020378269 458 104
-0.18781039 -0.089563742 0.40563136 0.0017849745 491 112
-0.18602331 -0.089683414 0.4069944 0.0017748001 499 114
-0.18365991 -0.089524813 0.40713283 0.0018331909 510 116
-0.18050751 -0.088973746 0.40551212 0.0016395696 556 127
-0.17812032 -0.088791654 0.40559241 0.0016556411 603 137
-0.17604423 -0.088762246 0.40638924 0.001536369 622 142
-0.17396936 -0.088732764 0.40720108 0.001452415 681 155
-0.17124295 -0.088366389 0.40647343 0.0013588755 831 190
-0.16782494 -0.087630205 0.404039 0.0011400048 1015 232
-0.16575095 -0.087586537 0.404791 0.0011542331 994 227
-0.16534509 -0.088434018 0.40966827 0.0013565082 814 186
-0.16416059 -0.088880755 0.41269773 0.0014146348 750 171
-0.16506046 -0.090481222 0.4210977 0.0014323022 688 157
-0.1652208 -0.091711573 0.42779371 0.0015896618 593 135
nan nan nan 0 447 102
nan nan nan 0 448 102
-0.26486617 -0.15280575 0.71746397 0.0017292801 518 118
-0.26194051 -0.15312538 0.72047055 0.0019696499 459 104
-0.258757 -0.15330085 0.72276896 0.0019221499 448 102
-0.25527689 -0.153303 0.72421539 0.0021243014 442 101
-0.25187466 -0.15335265 0.72584897 0.0019486225 438 100
-0.24812002 -0.15318611 0.72641939 0.0020058209 450 102
-0.24455997 -0.15313667 0.72750372 0.0019555234 459 104
-0.24081007 -0.15296522 0.72796661 0.0019092041 483 110
-0.2372257 -0.15289541 0.72887117 0.0018578611 486 111
-0.23328581 -0.152591 0.72861427 0.0017286579 517 118
-0.22915126 -0.15214814 0.72765046 0.0016335461 569 130
-0.22542156 -0.15196469 0.7278828 0.0015561542 611 139
-0.22196835 -0.15196475 0.72895354 0.0015387364 619 141
-0.21515259 -0.14962637 0.71875262 0.0017928261 560 128
nan nan nan 0 270 61
nan nan nan 0 366 83
-0.14833874 -0.10829555 0.52225751 0.0014512985 728 166
-0.14511594 -0.10773001 0.52015549 0.0012495297 877 200
-0.14223763 -0.10740516 0.51918542 0.0012282892 898 205
-0.14061223 -0.10803159 0.52279067 0.0013389835 850 194
-0.13833527 -0.10817079 0.52401805 0.0012579258 864 197
-0.13689576 -0.10898172 0.52848059 0.0013446902 830 189
-0.13458373 -0.10911512 0.52963895 0.0013161653 809 185
-0.1325611 -0.10949257 0.53196156 0.0013215026 796 182
-0.13049963 -0.10985177 0.53417689 0.0013711371 744 170
-0.12833564 -0.11013696 0.5360136 0.0013854377 735 168
-0.12588316 -0.11018103 0.53665709 0.0013756888 745 170
-0.12448577 -0.11116911 0.54188222 0.0014561696 727 166
-0.12203087 -0.11123418 0.54259223 0.0014345436 713 163
-0.11950136 -0.11123255 0.5429579 0.0014070192 732 167
-0.11679792 -0.11106545 0.5424968 0.0013658783 755 172
-0.11390632 -0.11070811 0.54108685 0.0013324546 786 179
-0.11132406 -0.11064205 0.54108202 0.001394646 746 170
-0.10924807 -0.11108774 0.54356432 0.0013687779 754 172
-0.10691208 -0.11128387 0.54481113 0.0013973912 771 176
-0.10415596 -0.11104162 0.54389602 0.0013714692 790 180
-0.10080683 -0.11013942 0.53973091 0.0013571574 843 192
-0.098321944 -0.11015958 0.54006928 0.0013509775 851 194
-0.097299926 -0.11186261 0.54864818 0.0013078962 811 185
-0.094913013 -0.11204572 0.54976285 0.001444196 756 172
-0.092323557 -0.11199326 0.54970902 0.0013280167 803 183
-0.089896545 -0.11214045 0.55062318 0.001346674 768 175
-0.087281294 -0.11205456 0.55038124 0.0014558814 744 170
-0.084685884 -0.11198974 0.55023122 0.0013946 727 166
-0.082290933 -0.11219422 0.55139387 0.00148541 717 163
-0.079672277 -0.11209702 0.55106384 0.0014053942 712 162
-0.077075221 -0.11202479 0.55084658 0.0014075703 754 172
-0.074492693 -0.11196946 0.55070299 0.0013652891 764 174
-0.071936637 -0.11195143 0.55073386 0.0014211986 744 170
-0.069372743 -0.11191943 0.55068767 0.0013667962 753 172
-0.066582486 -0.11150589 0.54875576 0.0013764552 759 173
-0.064103507 -0.11160156 0.54932213 0.0013375968 771 176
-0.061654262 -0.11175901 0.55018562 0.0014408705 738 168
-0.059065744 -0.11166669 0.54981291 0.0014447041 749 171
-0.056284014 -0.11118439 0.54751325 0.0013156543 798 182
-0.053818401 -0.11131059 0.548204 0.0013288651 777 177
-0.051552981 -0.11188369 0.55109042 0.001320619 781 178
-0.049278107 -0.11249466 0.55415887 0.0014349321 706 161
-0.047038835 -0.11325824 0.55797464 0.0015173265 693 158
-0.044970989 -0.11454684 0.56437325 0.0014452796 698 159
-0.042832445 -0.11580265 0.57060683 0.0014906584 662 151
-0.040267304 -0.11599401 0.57159173 0.0014815652 656 150
-0.037680246 -0.11614463 0.57237208 0.0015804311 665 152
-0.03509618 -0.11632786 0.57330954 0.0014767405 665 152
-0.03253866 -0.11663609 0.57485962 0.0014849419 662 151
-0.029930228 -0.11680029 0.57569677 0.0015318084 640 146
-0.02731411 -0.11696356 0.57652617 0.001571723 645 147
-0.024565734 -0.11653462 0.5744338 0.0014886579 657 150
-0.022149624 -0.11776867 0.58053601 0.0015328747 629 143
-0.019524256 -0.11807637 0.58206958 0.0015291512 632 144
-0.017115127 -0.11999827 0.59155822 0.0015409065 623 142
-0.014464336 -0.12063314 0.59470022 0.0015423399 635 145
-0.011768844 -0.12110496 0.59703612 0.0014866671 660 150
-0.0090333438 -0.12132745 0.59814084 0.0014894723 660 150
-0.0061662016 -0.11920062 0.58766121 0.0015014878 687 157
-0.003442642 -0.11869143 0.58515435 0.0014472746 689 157
-0.0007451342 -0.11864546 0.58492935 0.0015048683 670 153
0.0019535194 -0.11879623 0.58567214 0.0014663554 670 153
0.0045750798 -0.11680382 0.57584703 0.0014155629 715 163
0.0072597936 -0.11729482 0.5782634 0.0014625259 671 153
0.0099750869 -0.11788349 0.581159 0.0015466596 650 148
0.01265604 -0.11790299 0.58124667 0.0015308378 645 147
0.01535313 -0.11803974 0.58191007 0.00148745 663 151
0.018108923 -0.11852003 0.58426481 0.0015384888 623 142
0.020776652 -0.1183742 0.58353055 0.0015399561 617 141
