# .PCD v0.7 - Point Cloud Data file format
VERSION 0.7
FIELDS x y z noise intensity gray
SIZE 4 4 4 4 2 1
TYPE F F F F U U
COUNT 1 1 1 1 1 1
WIDTH 884
HEIGHT 1
VIEWPOINT 0 0 0 1 0 0 0
POINTS 884
DATA ascii
-0.15085196 -0.095372878 0.50574636 0.0012328109 929 202
-0.14968278 -0.096153267 0.51053363 0.0012621634 890 193
-0.14759897 -0.09636198 0.5122658 0.0012877531 876 190
-0.14401421 -0.095581472 0.50870991 0.0012377942 920 200
-0.14117822 -0.095279969 0.50767177 0.0012100083 934 203
-0.14014003 -0.096202247 0.51313329 0.0012106855 911 198
-0.13658978 -0.095402166 0.50938487 0.0011477895 1003 218
-0.1343374 -0.09549626 0.51038367 0.0011676942 972 211
-0.13206781 -0.095581301 0.51131237 0.0011708015 964 209
-0.12997013 -0.095796205 0.51291537 0.0012182106 948 206
-0.12761019 -0.095822223 0.51348662 0.0011677478 974 212
-0.12505612 -0.095700681 0.51324606 0.0011124791 1055 229
-0.12247995 -0.095557161 0.51286638 0.0011224468 1060 230
-0.11990786 -0.095411167 0.51245284 0.0011009125 1116 243
-0.1179326 -0.095743805 0.51459181 0.0011508543 1088 236
-0.11536362 -0.095598213 0.51414293 0.0010848461 1092 237
-0.11343844 -0.095991254 0.51657408 0.0011074756 1103 240
-0.11125181 -0.096175246 0.51786512 0.0011195833 1072 233
-0.10884511 -0.096172921 0.51813704 0.0010922457 1084 236
-0.10661534 -0.096330367 0.51925409 0.0011512859 1041 226
-0.10448344 -0.096585549 0.5208838 0.0011934364 1027 223
-0.10203351 -0.09655185 0.5209415 0.0011903701 1037 225
-0.099448763 -0.096385881 0.52027082 0.0011467808 1058 230
-0.09743128 -0.096775092 0.52258378 0.0011732149 1025 223
-0.095306821 -0.097075164 0.52440375 0.0011213269 1030 224
-0.093343854 -0.09755972 0.52720916 0.001190912 1004 218
-0.090987772 -0.097648345 0.52786404 0.0012434155 947 206
-0.089347161 -0.098530896 0.53280073 0.0011952728 931 202
-0.08676666 -0.098397605 0.53223443 0.0011914244 963 209
-0.084043145 -0.098089606 0.53071183 0.0011745716 1007 219
-0.08131557 -0.097758211 0.52905172 0.001211485 1001 217
-0.078893557 -0.097785041 0.52932012 0.0011324571 1021 222
-0.076781832 -0.098210432 0.53173763 0.0011655155 973 211
-0.074751548 -0.09877155 0.53488237 0.0012420694 937 204
-0.072591528 -0.099193737 0.53726757 0.0012158571 908 197
-0.070408985 -0.099613912 0.5396347 0.0012567315 864 188
-0.068868868 -0.10100711 0.54726726 0.0013392111 769 167
-0.066462234 -0.1011871 0.54832071 0.0013576462 794 172
-0.064075306 -0.1014125 0.54961395 0.0014306669 782 170
-0.062154714 -0.10242498 0.55516738 0.0013814301 745 162
-0.060457401 -0.10390818 0.56326765 0.0015779388 681 148
-0.059398007 -0.10667016 0.5782969 0.0015324483 627 136
-0.056772217 -0.10674656 0.57876265 0.001564056 624 135
-0.053599901 -0.10575218 0.57341754 0.0015096823 641 139
-0.051006984 -0.10585709 0.57402807 0.0014730123 667 145
-0.048045393 -0.10516649 0.57032025 0.0014037382 722 157
-0.045598343 -0.10558741 0.57263637 0.0014549583 737 160
-0.0429115 -0.10547066 0.57203287 0.0014235902 755 164
-0.039943814 -0.10460319 0.56735432 0.0013777451 768 167
-0.037038703 -0.10378953 0.56296414 0.0013143611 796 173
-0.03440737 -0.10367826 0.56238085 0.0013524597 811 176
-0.031828839 -0.10372094 0.56263018 0.0013200142 823 179
-0.029225662 -0.10368374 0.56244391 0.0014047069 720 156
-0.026600899 -0.10355526 0.56176054 0.0014042323 721 157
-0.023909735 -0.10311275 0.55937159 0.0014159263 746 162
-0.021403603 -0.10345764 0.56125253 0.0015004401 716 155
-0.019178592 -0.10544298 0.57203144 0.0014962326 656 142
-0.016976163 -0.10820483 0.58702195 0.0015918162 601 130
-0.014512336 -0.11003169 0.59693903 0.0016699032 556 121
-0.011652455 -0.10900788 0.59138966 0.0016538256 564 122
-0.0088812187 -0.10844149 0.58832061 0.0015923157 596 129
-0.0061662882 -0.10836698 0.58791906 0.0016300728 591 128
-0.0034798458 -0.10906862 0.59172738 0.0017283956 585 127
-0.00075478258 -0.10925739 0.59275222 0.001622307 580 126
0.0019875451 -0.10987888 0.59612375 0.0016611294 558 121
0.0048170262 -0.11180205 0.6065563 0.0018185354 520 113
0.0076588644 -0.1124945 0.61031073 0.0018042368 510 111
0.010408203 -0.11182126 0.606655 0.0017688255 512 111
0.012967501 -0.10982358 0.59581286 0.0018522177 541 117
0.015637739 -0.10929937 0.59296352 0.0017544742 581 126
0.018005021 -0.10712854 0.58117986 0.0015546754 615 133
0.020669892 -0.10706119 0.58080667 0.0015362279 627 136
0.023316655 -0.10692625 0.58006513 0.0015249838 632 137
0.025734827 -0.1058786 0.5743708 0.0015194323 637 138
0.028285436 -0.1055204 0.57241499 0.0015687349 666 145
0.030866968 -0.10532883 0.57136112 0.0015593426 675 146
0.033824634 -0.10635 0.57688349 0.0016165877 659 143
0.036740664 -0.10710096 0.58093756 0.00156508 640 139
0.039609041 -0.10762047 0.58373314 0.0015471494 630 137
0.041838765 -0.10644897 0.57735407 0.0014453589 685 149
0.04433161 -0.106047 0.57514578 0.0014706536 703 153
0.047055755 -0.10621245 0.57601166 0.0014211354 707 153
0.049692564 -0.10617366 0.57576603 0.0014604685 678 147
0.052354783 -0.10619032 0.57581693 0.001504312 647 140
0.055095565 -0.10635705 0.57667708 0.0015102135 639 139
0.058068551 -0.10693602 0.57976741 0.001524361 627 136
0.060750537 -0.10695174 0.57979858 0.0015393051 648 141
0.063236281 -0.1066352 0.57802308 0.0014685903 672 146
0.065764286 -0.10641265 0.57675147 0.0014705623 664 144
0.067975827 -0.10571526 0.57290047 0.0014647135 682 148
0.070632376 -0.10573623 0.57293624 0.0014536169 680 148
0.073291264 -0.10575905 0.5729748 0.0014663183 671 146
0.075985871 -0.10583005 0.57326674 0.0014744907 669 145
0.079403155 -0.10686889 0.57879221 0.0015340154 623 135
0.083006002 -0.10808177 0.58524936 0.0015876223 596 129
0.085149437 -0.10737777 0.58131701 0.0016963538 616 134
0.087240674 -0.10665297 0.57726425 0.0015694282 635 138
0.08887203 -0.10542565 0.57048386 0.0015421662 666 145
0.09001001 -0.10370058 0.56100339 0.0014056744 716 155
0.092043407 -0.10307482 0.55746257 0.0014335886 764 166
0.094692685 -0.10315405 0.55772394 0.001462028 735 160
0.097455822 -0.10334983 0.55860317 0.0013940902 733 159
0.09990219 -0.10320825 0.55764633 0.0014147459 709 154
0.10238859 -0.10311411 0.55693322 0.001405969 720 156
0.10456152 -0.10271666 0.55456924 0.0013838119 743 161
0.10692368 -0.1025197 0.55327475 0.0013638698 748 162
0.10965113 -0.10267399 0.55386126 0.00141532 752 163
0.11223503 -0.10268989 0.55368555 0.0014498545 723 157
0.11616562 -0.10390969 0.55998164 0.001435818 701 152
0.11855124 -0.10372438 0.55868584 0.0014558525 686 149
0.11950413 -0.1023203 0.55081272 0.0014971679 702 152
0.12221272 -0.10244679 0.55116516 0.0014978448 682 148
0.12529705 -0.10287662 0.55312914 0.0015436342 652 141
0.12650372 -0.10177848 0.54686105 0.0014742326 677 147
0.12832631 -0.1012094 0.54342198 0.0014267429 714 155
0.13066183 -0.10105905 0.54221368 0.0014116138 724 157
0.13209921 -0.10023291 0.53736287 0.0014184667 754 164
0.13402505 -0.099801287 0.53461081 0.0013802665 765 166
0.13617019 -0.099545717 0.53278333 0.001314547 809 176
0.13851789 -0.099444769 0.53176224 0.0012909565 826 179
0.14088643 -0.099362068 0.53081656 0.0013112053 801 174
0.14304586 -0.099137299 0.52908981 0.0012931204 824 179
0.14411023 -0.098174199 0.52340472 0.0013723444 837 182
0.14635216 -0.098032109 0.52207816 0.0012979459 822 179
0.14881098 -0.098037615 0.5215131 0.0012910494 821 178
0.15011421 -0.097293951 0.51694167 0.0012907515 878 191
0.15230368 -0.097139239 0.51547879 0.001242268 881 191
0.15464976 -0.097087704 0.51453805 0.0012284301 889 193
0.15606096 -0.096459918 0.51052082 0.001246054 912 198
0.15784287 -0.096076891 0.5077787 0.0012814234 936 203
0.1583606 -0.094947375 0.50107509 0.0011517657 986 214
0.1605745 -0.094853163 0.49981678 0.0011810283 1011 220
0.16196814 -0.094284207 0.49603412 0.001152386 992 216
0.16466151 -0.094477326 0.49623567 0.0011705013 959 208
0.16852379 -0.09532617 0.49984363 0.0012655866 845 184
0.16959485 -0.094594494 0.49513477 0.0012046538 921 200
0.17249732 -0.094890393 0.49578008 0.0011994584 952 207
0.17300242 -0.093877368 0.48956549 0.0011618622 980 213
0.17546411 -0.093938969 0.48893684 0.0012114107 954 207
0.17861515 -0.094363123 0.49016342 0.0012368272 911 198
0.18169406 -0.094738618 0.49110258 0.0013490951 836 182
0.18521933 -0.095334195 0.49314684 0.0013724549 815 177
0.1851306 -0.094078101 0.48559621 0.0012043677 929 202
0.18627693 -0.093473271 0.48140603 0.0011749475 967 210
0.18854567 -0.093439683 0.48014519 0.0011847934 968 210
0.19077772 -0.093388937 0.47877949 0.0012654709 940 204
0.19382003 -0.093731277 0.47941038 0.001292733 885 192
0.20046754 -0.095788084 0.48876962 0.0013859805 793 172
0.1948777 -0.092018053 0.46840924 0.0012291332 938 204
0.19229101 -0.08973749 0.45570084 0.0011067478 1067 232
0.19336897 -0.08919999 0.45187888 0.0010864793 1118 243
0.19487946 -0.088871993 0.44913396 0.0010808732 1130 246
0.19688796 -0.088775948 0.44757691 0.0011315222 1069 232
0.19908959 -0.088768154 0.44648203 0.001145098 1083 235
0.20109527 -0.088674128 0.44497675 0.0010948579 1085 236
0.20210634 -0.088148348 0.44134039 0.0010829673 1104 240
0.20240694 -0.087327383 0.43627557 0.0010792047 1151 250
0.20379011 -0.08698602 0.43366036 0.0010414853 1179 255
0.20547014 -0.086777247 0.43175897 0.0010461357 1171 255
0.20757756 -0.086751439 0.43082383 0.0010919562 1134 246
0.20956126 -0.086674996 0.42969748 0.0011354716 1051 228
0.21448785 -0.087804869 0.43460855 0.0012351797 905 197
0.21852869 -0.0885529 0.43768662 0.001368137 754 164
0.21745208 -0.087233029 0.43062297 0.0014445778 742 161
0.21264564 -0.084457964 0.41647783 0.0014072817 790 172
0.21476351 -0.084460586 0.41612425 0.0013555116 770 167
0.21430698 -0.083460584 0.41091618 0.0014415187 767 167
0.21568929 -0.083189085 0.40938121 0.0013551199 769 167
0.21560563 -0.082362764 0.40520066 0.0014156908 784 170
-0.28157273 -0.092856884 0.47504133 0.0070074075 82 17
nan nan nan 0 33 7
-0.41585305 -0.13949864 0.71086574 0.027088443 20 4
-0.41783595 -0.14137968 0.71919227 0.028969478 24 5
nan nan nan 0 19 4
nan nan nan 0 21 4
nan nan nan 0 24 5
nan nan nan 0 25 5
nan nan nan 0 26 5
-0.50909328 -0.18171576 0.91782933 0.034159988 24 5
-0.50400805 -0.18156213 0.91654384 0.02292983 29 6
-0.49549106 -0.18015788 0.90912801 0.023281742 30 6
nan nan nan 0 35 7
nan nan nan 0 29 6
nan nan nan 0 21 4
nan nan nan 0 27 5
nan nan nan 0 57 12
-0.20728152 -0.079831444 0.40369341 0.0028084011 288 62
-0.20405222 -0.07937143 0.4017868 0.0018862297 452 98
-0.20130311 -0.079090826 0.40085909 0.0019238187 462 100
-0.19944379 -0.079157665 0.40176225 0.0019539108 482 104
-0.19770999 -0.079276197 0.40299633 0.0017421871 506 110
-0.19415756 -0.078660399 0.40055546 0.0016688856 544 118
-0.19207607 -0.07863386 0.40116626 0.0015783358 595 129
-0.19015931 -0.078674905 0.40217304 0.0015152472 645 140
-0.18783359 -0.078545846 0.4023543 0.0014285748 703 153
-0.18467076 -0.078060105 0.40074059 0.0013373176 774 168
-0.18282017 -0.078124501 0.40197915 0.0015315814 623 135
-0.18449484 -0.079713456 0.41110861 0.0018749115 464 101
-0.18194622 -0.079492852 0.41094309 0.0016640297 561 122
-0.17712432 -0.078262776 0.4055568 0.0012770926 845 184
-0.17530362 -0.078345805 0.40697086 0.0012888993 834 181
-0.17455763 -0.078916617 0.41093227 0.0014116429 733 159
-0.1750094 -0.08004868 0.41783857 0.0015494144 660 143
-0.17511863 -0.08104907 0.4240813 0.0016415728 636 138
-0.17536598 -0.082138188 0.43080735 0.0016340951 574 124
-0.1782631 -0.084509946 0.44429356 0.0018694449 470 102
nan nan nan 0 308 67
nan nan nan 0 229 49
nan nan nan 0 415 90
-0.17842363 -0.088908486 0.47165191 0.0017983842 481 104
-0.17609866 -0.088885486 0.47253489 0.0017390051 506 110
-0.17198172 -0.087945536 0.46850824 0.0015043858 634 138
-0.16411643 -0.085038364 0.45393476 0.0011601074 981 213
-0.16555049 -0.086936325 0.46497482 0.001191105 1015 221
-0.16423608 -0.087423094 0.46846551 0.001228624 964 209
-0.15860043 -0.085591294 0.45949203 0.0010278099 1206 255
-0.1555894 -0.085144378 0.45790431 0.001028866 1317 255
-0.15564789 -0.086388402 0.46539122 0.0010639256 1133 246
-0.1566869 -0.088220403 0.47604662 0.0012093883 959 208
-0.16040283 -0.091635384 0.49526218 0.0012964988 822 179
-0.16065475 -0.0931435 0.5041855 0.0014013196 751 163
-0.15922228 -0.093705833 0.5079779 0.0013655813 765 166
-0.15824877 -0.094559655 0.51333332 0.0014115828 774 168
-0.15283813 -0.092747435 0.50418079 0.0012792147 876 190
-0.15047747 -0.092758007 0.50489676 0.0012756323 901 196
-0.14947982 -0.093622625 0.51024085 0.0012569064 867 188
-0.1476474 -0.093984082 0.51282471 0.0013570178 826 179
-0.14522037 -0.093972743 0.51335096 0.0013477615 833 181
-0.14248252 -0.093756527 0.51273149 0.0013150717 856 186
-0.14019597 -0.093834929 0.51369774 0.0012964046 825 179
-0.13832662 -0.094200186 0.516213 0.0012749218 851 185
-0.13621189 -0.094408371 0.51784706 0.0012733755 853 185
-0.13226452 -0.093330875 0.512402 0.0012224398 931 202
-0.13003922 -0.093451239 0.51350665 0.0011863795 941 204
-0.12781307 -0.0935755 0.51461244 0.0012219948 987 214
-0.12543796 -0.093593366 0.51511323 0.0011794204 954 207
-0.12291498 -0.093499459 0.51497835 0.0012278309 966 210
-0.12129623 -0.094103314 0.51866913 0.0012002633 983 214
-0.11841041 -0.093728721 0.51694924 0.0011544605 980 213
-0.11559765 -0.093397655 0.51544863 0.0011646983 1003 218
-0.11335554 -0.093523383 0.5164507 0.001115026 1047 227
-0.11129988 -0.093811691 0.51833498 0.0011119207 1060 230
-0.10887302 -0.093792953 0.51850724 0.0010960699 1073 233
-0.10653605 -0.093852557 0.51909703 0.0011238221 1039 226
-0.1042531 -0.093963601 0.51995647 0.0011593989 1046 227
-0.10172855 -0.093857013 0.51959705 0.0011486681 1064 231
-0.099397033 -0.093927659 0.52020484 0.0011479896 1063 231
-0.097604945 -0.094524205 0.52371311 0.0011818561 1033 224
-0.095460862 -0.094801582 0.525442 0.0011470394 997 217
-0.093246222 -0.095021546 0.52684122 0.0011748476 988 215
-0.091372848 -0.095610388 0.53027517 0.0011749363 963 209
-0.089236818 -0.0959493 0.53231305 0.0012152357 936 203
-0.08669579 -0.09585961 0.53196239 0.0012402777 961 209
-0.084160775 -0.095771536 0.53161025 0.0011497708 989 215
-0.081616983 -0.095667876 0.53116119 0.0011613598 982 213
-0.079116032 -0.095609561 0.53095436 0.0011478366 1004 218
-0.076727346 -0.095687531 0.53149551 0.0012465209 951 207
-0.074608311 -0.09611804 0.53398681 0.0011790777 957 208
-0.072534502 -0.096638218 0.53696907 0.0012117476 916 199
-0.07029067 -0.096960656 0.5388459 0.0012538261 885 192
-0.067948647 -0.097166337 0.54006708 0.001256359 856 186
-0.065486588 -0.097209461 0.54037809 0.0012590447 858 186
-0.062971734 -0.097174533 0.54024893 0.0012968107 861 187
-0.061316192 -0.09851741 0.54777461 0.001294127 823 179
-0.059168722 -0.099151313 0.55135375 0.0013500416 770 167
-0.057685126 -0.10100456 0.56170928 0.0014135099 718 156
-0.05613533 -0.10291065 0.57235539 0.001549848 651 141
-0.054016642 -0.10391039 0.57795727 0.0015877378 619 134
-0.050978743 -0.10315385 0.57378644 0.0014786565 660 143
-0.048124496 -0.10270647 0.57133073 0.0014869777 712 155
-0.045192722 -0.10203229 0.56760925 0.0014516992 742 161
-0.042458121 -0.10174775 0.56605184 0.0013764561 764 166
-0.039751157 -0.10149653 0.5646767 0.0013732119 815 177
-0.036937594 -0.10091887 0.56148243 0.0012888644 840 182
-0.03417844 -0.10041405 0.55869067 0.0013100331 869 189
-0.031511493 -0.10011996 0.557069 0.0012480456 871 189
-0.029155022 -0.10084762 0.56113046 0.001363038 769 167
-0.026560357 -0.10081282 0.56094778 0.0015059446 724 157
-0.02383673 -0.10022827 0.55770445 0.0013702457 745 162
-0.021290455 -0.10033829 0.55832446 0.001369422 756 164
-0.018719809 -0.10034791 0.55838448 0.001478884 718 156
-0.016564105 -0.10293929 0.57280976 0.0014954573 656 142
-0.014320686 -0.10586449 0.5890919 0.0015928301 591 128
-0.011777296 -0.10742173 0.59776092 0.0016760993 554 120
-0.009012118 -0.10728915 0.59702605 0.0017621797 548 119
-0.0062411535 -0.10694095 0.59509045 0.0016654398 560 121
-0.003488678 -0.10661217 0.59326214 0.0016756976 571 124
-0.00075909041 -0.1071343 0.59616822 0.0016663268 556 121
0.0019999754 -0.10780227 0.59988511 0.0016955948 540 117
0.0048257438 -0.10920462 0.60768789 0.0018145374 530 115
0.0076803369 -0.10999 0.61205661 0.0017367792 523 113
0.010462486 -0.1095947 0.60985446 0.0017058797 534 116
0.013188157 -0.1089004 0.60598773 0.0016996546 539 117
0.016117146 -0.10983426 0.61118001 0.0017809744 529 115
0.018717242 -0.1085824 0.60420865 0.0018679658 530 115
0.021252835 -0.10732893 0.59722745 0.0016470428 564 122
0.02380887 -0.10645424 0.59235263 0.0016271627 576 125
0.026143873 -0.1048728 0.58354408 0.0016601682 612 133
0.028274642 -0.10284347 0.57224196 0.0016037235 652 141
0.030909695 -0.10283809 0.57220012 0.0014794751 672 146
0.033800852 -0.10361868 0.57652944 0.0015656661 655 142
0.0367493 -0.10444833 0.58112925 0.0015128694 639 139
0.039605446 -0.10492077 0.58373892 0.0015396499 623 135
0.041981474 -0.10414209 0.57938534 0.0015046994 669 145
0.044288367 -0.10329529 0.57465011 0.0014266563 695 151
0.046933394 -0.10328821 0.57458335 0.0014855105 708 154
0.049634792 -0.10339931 0.57517052 0.0014350476 695 151
0.05221086 -0.10325128 0.57431227 0.0014811349 663 144
0.054806415 -0.10315422 0.57373351 0.0015019502 648 141
0.057833184 -0.10384035 0.57750589 0.0015154476 640 139
0.060191564 -0.10331881 0.57455701 0.0015780453 648 141
0.062506467 -0.10276974 0.57145023 0.0014541524 704 153
0.06501919 -0.10257719 0.57032049 0.0014167143 713 155
0.067750722 -0.10273138 0.57111269 0.0014171475 707 153
0.070643388 -0.10310923 0.57314128 0.001465217 700 152
0.073343173 -0.10318845 0.57350278 0.0015642409 657 143
0.076735027 -0.10420194 0.57904834 0.0016286157 611 133
0.080347143 -0.10543627 0.58581132 0.001617341 578 125
0.082897417 -0.10524222 0.58462846 0.0015751 603 131
0.084629804 -0.10405475 0.5779196 0.0015192981 635 138
0.085719034 -0.10217325 0.56735027 0.0015600863 673 146
0.087889023 -0.10165337 0.56433469 0.0014293144 709 154
0.08878874 -0.099736527 0.55355686 0.0014431138 761 165
0.090602532 -0.098925047 0.54890722 0.0013646804 796 173
0.093212724 -0.099003613 0.54918629 0.0013421299 772 168
0.096106499 -0.099371254 0.55105662 0.001356422 757 164
0.098462798 -0.099178508 0.54980677 0.0013689552 751 163
0.10070686 -0.098885261 0.54798806 0.0013638476 750 163
0.10312954 -0.09877751 0.54718488 0.0013484885 764 166
0.10674321 -0.099788308 0.55256212 0.0014093971 754 164
0.10988434 -0.10032037 0.55527031 0.0014133343 714 155
0.11325627 -0.10103399 0.55896515 0.0015227708 683 148
0.11635255 -0.10147531 0.56113458 0.0015383003 674 146
0.11847439 -0.10106605 0.55858374 0.0014460512 702 152
0.11894092 -0.09929245 0.54848152 0.0014864324 736 160
0.12097263 -0.098872416 0.54584545 0.0013943097 727 158
0.12354004 -0.098898478 0.54565519 0.001414492 704 153
0.12558526 -0.098513849 0.54318142 0.001403412 715 155
0.12778652 -0.098264404 0.5414359 0.0014202761 738 160
0.12976001 -0.097852826 0.53877968 0.0014031631 714 155
0.13138425 -0.097198479 0.53477055 0.0014163877 755 164
0.13288276 -0.096477218 0.53037786 0.0013270541 790 172
0.13507165 -0.096274391 0.52881783 0.0012913024 823 179
0.13687393 -0.09580823 0.52579236 0.0012609578 853 185
0.13952622 -0.095943004 0.52604353 0.0013248533 868 189
0.14143315 -0.095569447 0.52348548 0.0012603471 855 186
0.14345045 -0.095281929 0.52137822 0.0013348623 865 188
0.14547536 -0.095008992 0.51932949 0.0012332543 884 192
0.1478671 -0.094980687 0.5185945 0.0012592662 866 188
0.14958085 -0.09452486 0.51550251 0.0012828031 886 192
0.15096629 -0.093879394 0.51135743 0.0012187498 901 196
0.15324503 -0.093800984 0.51027942 0.0012239845 901 196
0.15550046 -0.093710937 0.50911212 0.0012280685 927 201
0.15628566 -0.092751101 0.50319982 0.001174044 973 211
0.15833279 -0.092557736 0.50142694 0.0011504799 985 214
0.16068228 -0.092544205 0.50060189 0.0011797916 974 212
0.16267526 -0.09232875 0.49865806 0.0011729561 960 209
0.16405211 -0.091774784 0.49486423 0.0011956156 994 216
0.1675982 -0.092432842 0.49757615 0.0012836424 908 197
0.17059118 -0.092771761 0.49853221 0.0013170411 843 183
0.1718557 -0.092174307 0.49443027 0.0012876901 878 191
0.17317565 -0.091622382 0.49055535 0.0012051408 918 199
0.17516576 -0.091435052 0.48861203 0.0011824393 947 206
0.17742844 -0.091393076 0.48742038 0.0012095222 928 202
0.18063964 -0.091834411 0.48877525 0.0012321732 893 194
0.18545967 -0.093071751 0.49432245 0.0013087654 809 176
0.18628232 -0.092297092 0.48915353 0.0012805223 842 183
0.18658842 -0.09128914 0.48274556 0.0012064623 930 202
0.188241 -0.09095677 0.47990483 0.0012020533 946 206
0.19042848 -0.09088783 0.47843984 0.0011585641 988 215
0.19378154 -0.09137015 0.47985524 0.0012493524 908 197
0.1980599 -0.092272021 0.48344341 0.0013332888 795 173
0.19545315 -0.089982823 0.47032002 0.0012818433 898 195
0.19347042 -0.088030979 0.45900729 0.0011319774 1026 223
0.19410336 -0.087300576 0.45409563 0.0011166974 1054 229
0.19526206 -0.086820595 0.45050481 0.0011095005 1068 232
0.19707714 -0.08664 0.44848418 0.001144993 1060 230
0.19904007 -0.086527713 0.4468345 0.0011213194 1046 227
0.20093447 -0.086388424 0.44506809 0.0011541293 1081 235
0.20030926 -0.085180722 0.43783927 0.0010500457 1170 254
0.20188643 -0.084925525 0.43555561 0.0010611733 1197 255
0.20387103 -0.084845319 0.4342117 0.0010538297 1158 252
0.20555356 -0.084642433 0.43228793 0.0010963146 1148 249
0.20716347 -0.084414206 0.43029058 0.0011163924 1127 245
0.20956108 -0.084508337 0.42999527 0.0011652918 1052 229
0.21404903 -0.085434869 0.43399018 0.0011973201 931 202
0.21631938 -0.085466474 0.43350068 0.001397465 806 175
0.21326454 -0.083414607 0.42253149 0.001378097 813 177
0.20966896 -0.081194073 0.41081154 0.0012561879 867 188
0.21146253 -0.081083611 0.40985924 0.0012686742 850 185
0.21437341 -0.08139956 0.41114223 0.0012979248 834 181
0.21372172 -0.080369726 0.40571201 0.0012765443 843 183
0.21199182 -0.07895796 0.39844188 0.0013156295 862 187
-0.30574575 -0.098243639 0.51547617 0.0045270165 140 30
nan nan nan 0 97 21
nan nan nan 0 47 10
-0.41093192 -0.13547888 0.70691836 0.023824656 25 5
nan nan nan 0 22 4
-0.40351847 -0.13538364 0.7043426 0.034790799 19 4
-0.40197518 -0.13606702 0.70703024 0.028716924 22 4
nan nan nan 0 28 6
nan nan nan 0 26 5
-0.5061872 -0.1760463 0.91239107 0.021623338 29 6
nan nan nan 0 30 6
-0.50234556 -0.17796744 0.92163014 0.020508075 34 7
nan nan nan 0 33 7
nan nan nan 0 29 6
nan nan nan 0 27 5
nan nan nan 0 24 5
nan nan nan 0 43 9
-0.21220332 -0.079631731 0.41343418 0.00307152 257 55
-0.20379402 -0.077238686 0.40145972 0.0018354588 468 101
-0.20123848 -0.077038378 0.40094122 0.0017671158 498 108
-0.19936916 -0.07709939 0.40185204 0.0017190248 518 112
-0.19684729 -0.076906696 0.40150523 0.0016842737 541 117
-0.19397868 -0.076573119 0.40047872 0.0015618129 608 132
-0.19187215 -0.076536529 0.40105692 0.0015322097 656 142
-0.18969569 -0.076470971 0.40153137 0.0014233094 727 158
-0.18675216 -0.076091476 0.40039536 0.0013695788 800 174
-0.18458265 -0.07602255 0.40092504 0.001259404 857 186
-0.18545052 -0.077216782 0.40816069 0.0018530649 468 101
-0.18317552 -0.077114381 0.40858039 0.001882789 463 100
-0.18141174 -0.077227309 0.41016021 0.0015300541 620 135
-0.17772911 -0.076516688 0.40737182 0.001286607 828 180
-0.17787571 -0.077457249 0.41338551 0.0014340043 697 151
-0.17679808 -0.077880315 0.41665861 0.0015159172 640 139
-0.17695586 -0.078863904 0.42294797 0.0015841819 600 130
-0.17871778 -0.080594234 0.43327236 0.0017663586 564 122
-0.17940393 -0.081875168 0.44121101 0.0019428234 503 109
-0.18257518 -0.084335156 0.45553905 0.0022183207 371 80
-0.19612713 -0.091709733 0.49652159 0.0033734213 203 44
nan nan nan 0 325 70
-0.17975573 -0.086174957 0.46865758 0.0016413229 562 122
-0.17756562 -0.086212501 0.46988046 0.0014945413 649 141
-0.1700528 -0.083633274 0.45678821 0.0012390966 874 190
-0.16621433 -0.082817189 0.4532626 0.0011281519 1031 224
-0.16398324 -0.082790941 0.45402542 0.0010864371 1098 239
-0.1649763 -0.084413692 0.46382281 0.0011187785 1056 229
-0.16274317 -0.084407456 0.46466014 0.0011365257 1027 223
-0.15858854 -0.083390683 0.45989707 0.0010570983 1155 251
-0.15647864 -0.083435625 0.46095288 0.0010579349 1165 253
-0.15518413 -0.083922826 0.46443006 0.0010925629 1155 251
-0.15431243 -0.084656008 0.46925285 0.0011122567 1063 231
-0.154177 -0.085820533 0.47645611 0.0011971697 939 204
-0.15921579 -0.089942642 0.50009692 0.0013439867 779 169
-0.16006169 -0.091784783 0.51108193 0.0015029472 713 155
-0.15778549 -0.091865644 0.51224685 0.0014460681 754 164
-0.15248902 -0.090163186 0.50342768 0.0012355753 888 193
-0.14942506 -0.089747824 0.50175244 0.0012056831 964 209
-0.14783889 -0.090220973 0.50501859 0.0011832794 943 205
-0.14613625 -0.090637304 0.50794667 0.0012689888 899 195
-0.14465976 -0.091210045 0.51173228 0.0012606678 877 190
-0.14251472 -0.091373473 0.51320094 0.0012516386 871 189
-0.14029597 -0.091494456 0.51440835 0.0013167338 846 184
-0.13795079 -0.091535769 0.51514506 0.0013140955 851 185
-0.13526545 -0.091348812 0.51457304 0.0012705743 862 187
-0.13358238 -0.091844194 0.51782364 0.0012900447 831 180
-0.13178794 -0.092279866 0.52072006 0.0013511515 822 179
-0.1282029 -0.091454536 0.5164777 0.0012716255 841 183
-0.12619096 -0.091741301 0.5184927 0.0013304445 827 180
-0.12397808 -0.091890298 0.51971084 0.001264925 852 185
-0.12156742 -0.091895737 0.52009821 0.0013022051 840 182
-0.11891034 -0.09171132 0.51939154 0.001249542 873 190
-0.11733817 -0.092373356 0.52346218 0.0013301017 872 189
-0.11501648 -0.092460871 0.52426201 0.0012305999 897 195
-0.11164382 -0.091689043 0.52017021 0.0012336074 933 203
-0.10926688 -0.091718927 0.52060801 0.0011874181 946 206
-0.10665611 -0.091549456 0.51989824 0.0011490074 997 217
-0.10419524 -0.091503799 0.519876 0.0011220855 1041 226
-0.10179801 -0.091513187 0.52015185 0.0011264767 1053 229
-0.099489965 -0.091605142 0.52088344 0.0011140826 1050 228
-0.097579084 -0.092076436 0.5237599 0.0011087963 1059 230
-0.095562711 -0.09246964 0.52618116 0.0011824815 988 215
-0.093405537 -0.092743598 0.5279128 0.0011842712 970 211
-0.091323167 -0.093108512 0.53015149 0.0012025731 922 200
-0.089076467 -0.093321383 0.53151423 0.0011792183 949 206
-0.0866464 -0.093348794 0.53181022 0.0011846096 947 206
-0.084152363 -0.093306869 0.53170091 0.0011918665 934 203
-0.081757128 -0.093375243 0.53221041 0.0011769903 951 207
-0.079265401 -0.093334258 0.53208733 0.0011538432 988 215
-0.076845326 -0.093377702 0.53243679 0.0012386311 937 204
-0.074643493 -0.09369798 0.53435677 0.001189644 931 202
-0.072389513 -0.09397243 0.53600812 0.0012236993 903 196
-0.070220098 -0.094379969 0.5384118 0.0012669248 926 201
-0.067910843 -0.094622552 0.53986788 0.0013014524 900 195
-0.065478466 -0.0947055 0.54040682 0.0012327204 890 193
-0.062986352 -0.094705202 0.5404647 0.0012333696 882 192
-0.060533844 -0.094766885 0.54087043 0.0012850699 889 193
-0.058303576 -0.095196731 0.54337239 0.0013057517 846 184
-0.056474321 -0.096349314 0.5499953 0.0013287304 788 171
-0.054906029 -0.098076418 0.55989426 0.0014220962 711 154
-0.053666227 -0.10058956 0.57427782 0.001499826 651 141
-0.051309541 -0.10116144 0.57757539 0.0015650954 613 133
-0.048337329 -0.10051592 0.57391834 0.0014949673 661 143
-0.04563456 -0.10038839 0.57321537 0.0015075726 707 153
-0.042441025 -0.099099256 0.56587601 0.0013664786 750 163
-0.03963355 -0.098601818 0.56305426 0.0013656049 797 173
-0.036911201 -0.098261304 0.56112593 0.0012783392 834 181
-0.034199096 -0.097898804 0.55906963 0.001256439 856 186
-0.031536587 -0.097630806 0.55755097 0.0012343472 883 192
-0.02898485 -0.0976886 0.55789095 0.0012644049 847 184
-0.026544696 -0.098170303 0.56065035 0.0014378137 741 161
-0.023920299 -0.098001041 0.55969077 0.0014843229 747 162
-0.021012571 -0.096489817 0.55106574 0.0013358995 786 171
-0.018476823 -0.096506089 0.55116332 0.0013310934 795 173
-0.016084438 -0.097395651 0.55624771 0.0014908897 721 157
-0.013913922 -0.1002205 0.572384 0.0015262477 663 144
-0.011567271 -0.10280115 0.5871253 0.0015743563 608 132
-0.0089942273 -0.10433099 0.59586453 0.0016730026 557 121
-0.0062504015 -0.10435366 0.59599531 0.001804983 550 119
-0.0034887535 -0.10388113 0.59329742 0.0016476198 570 124
-0.00075065944 -0.10322824 0.58956885 0.0015797288 599 130
0.001968754 -0.10339874 0.59054261 0.0016650106 607 132
0.0047638505 -0.10504016 0.59991664 0.0017120542 578 125
0.0075609679 -0.10550446 0.60256743 0.001639828 565 123
0.010352082 -0.10565811 0.60344338 0.0017468111 564 122
0.013047743 -0.10497873 0.59956092 0.0016706533 575 125
0.015730787 -0.10445295 0.59655529 0.0017313836 581 126
0.018645208 -0.10539143 0.60191149 0.0016464355 571 124
0.021421181 -0.10540564 0.6019882 0.0017782339 558 121
0.024121065 -0.1050851 0.60015178 0.0018313214 556 121
0.02642101 -0.10326731 0.58976358 0.0016490236 561 122
0.028594363 -0.10133991 0.57874829 0.0015501353 621 135
0.031030679 -0.10059378 0.57447779 0.0015232938 638 138
0.033624113 -0.10043424 0.57355559 0.0015195456 666 145
0.036610704 -0.1013867 0.57898188 0.0016214954 645 140
0.039375167 -0.10163644 0.58039272 0.0015201275 637 138
0.041652009 -0.10067581 0.57488936 0.0014599814 678 147
0.044258378 -0.1005789 0.57431573 0.0014121849 706 153
0.0468853 -0.10053702 0.57405323 0.0013880166 729 158
0.049467176 -0.10040816 0.57329082 0.0014149358 714 155
0.052098714 -0.10038807 0.57314599 0.0014492053 687 149
0.05475625 -0.1004176 0.57328033 0.0015191847 655 142
0.0572845 -0.10021822 0.57210362 0.0014789213 671 146
0.059891805 -0.10016862 0.57177728 0.0014228721 701 152
0.062341113 -0.099870078 0.57002521 0.0013994554 723 157
0.064917848 -0.099791571 0.56952363 0.0014312345 702 152
0.067830108 -0.10021489 0.57188004 0.0016059753 655 142
0.070923686 -0.10086439 0.5755201 0.0015670137 620 135
0.074213371 -0.10173587 0.580419 0.0016015545 591 128
0.077536762 -0.10259126 0.58521736 0.0016096269 589 128
0.079533473 -0.10169277 0.58000332 0.001560783 613 133
0.081775248 -0.10115593 0.57684499 0.0015765295 666 145
0.081769571 -0.097960472 0.55852085 0.0014740487 734 159
0.083041683 -0.096444316 0.54976743 0.0013505577 759 165
0.085522629 -0.096380405 0.54928482 0.0013627111 795 173
0.08801312 -0.096330605 0.54887295 0.0013753722 777 169
0.09046831 -0.096246049 0.5482527 0.0013146856 798 173
0.093100421 -0.096349172 0.54869097 0.0013744892 775 168
0.095819585 -0.096534558 0.54958576 0.0015052727 731 159
0.098165348 -0.096343882 0.54832757 0.0013476125 766 166
0.10059109 -0.096239321 0.54754752 0.001454461 750 163
0.10318014 -0.096292317 0.54765087 0.0013874469 740 161
0.10608688 -0.096632138 0.54937106 0.0014252235 744 162
0.11026371 -0.098085873 0.55740559 0.0015166722 698 151
0.11385248 -0.098961957 0.56213659 0.0015668106 640 139
0.11586767 -0.098461673 0.55903262 0.0014440269 690 150
0.11546265 -0.095971629 0.54462332 0.0014133574 732 159
0.11667617 -0.094904676 0.53828353 0.0013600198 758 165
0.11855355 -0.094411112 0.53518343 0.0013479245 768 167
0.12085725 -0.094270349 0.53406769 0.0013973918 792 172
0.12249847 -0.093628876 0.53009975 0.0013115865 796 173
0.12490475 -0.093585946 0.52950412 0.0014185454 783 170
0.1275302 -0.093705714 0.52980942 0.0013542937 762 165
0.12983054 -0.093586572 0.52874374 0.0013526956 765 166
0.13249861 -0.093732007 0.52915204 0.0013005555 806 175
0.13469532 -0.093544781 0.52766103 0.0012618871 857 186
0.13634846 -0.092993557 0.52409822 0.001237026 883 192
0.13852999 -0.092815787 0.52262127 0.0012920001 885 192
0.14143537 -0.093120739 0.5238384 0.0013267812 847 184
0.14300455 -0.092550546 0.52011025 0.0012618637 872 189
0.14460027 -0.092016332 0.5165661 0.0012716856 886 192
0.14723819 -0.092151999 0.51675999 0.0012513495 868 189
0.14925048 -0.091898039 0.51474422 0.0012947698 880 191
0.1510527 -0.091524914 0.51203901 0.0012476264 867 188
0.15271442 -0.09107969 0.50890952 0.0012359606 890 193
0.15409975 -0.09048593 0.50493062 0.0012240615 941 204
0.15619044 -0.090318121 0.50330687 0.0012552633 961 209
0.15847823 -0.090267621 0.50231081 0.0012782104 934 203
0.16025479 -0.089931704 0.49970162 0.0011845797 961 209
0.16141437 -0.089264356 0.49523082 0.0011384233 1009 219
0.16504295 -0.089961983 0.49830392 0.0012046943 964 209
0.16854151 -0.090569988 0.50084001 0.001237112 887 193
0.17126052 -0.09074799 0.50096178 0.0013164073 799 173
0.17362103 -0.090733729 0.49999136 0.0013776162 802 174
0.17411718 -0.089758769 0.49370784 0.0012797299 881 191
0.17585646 -0.089442179 0.49103028 0.0012454831 935 203
0.1772688 -0.088969864 0.48747829 0.001228378 944 205
0.17958969 -0.088959895 0.48643765 0.0012145282 957 208
0.18243435 -0.089206301 0.48676956 0.0012322734 895 194
0.18587385 -0.089733623 0.48860022 0.0013155412 799 173
0.18763855 -0.089449316 0.48598462 0.0012455299 886 192
0.18732662 -0.088194363 0.47809187 0.0011857327 971 211
0.18928127 -0.088024184 0.4760769 0.0011496876 1008 219
0.1920047 -0.088211305 0.47597677 0.0011928112 945 205
0.19521469 -0.088614844 0.47702193 0.0012567361 870 189
0.19714884 -0.088436522 0.47492054 0.0012905713 832 181
0.19386232 -0.085947812 0.46043879 0.0011759521 968 210
0.194546 -0.085256375 0.45562327 0.001144081 1008 219
0.19587153 -0.084858768 0.45239332 0.0011289957 1036 225
0.19708851 -0.084423624 0.44898012 0.0011278357 1044 227
0.19898538 -0.084286168 0.44716907 0.0011245748 1041 226
0.19758406 -0.082770109 0.43808222 0.0010973456 1139 248
0.19928032 -0.082570553 0.43600813 0.0010319368 1196 255
0.200876 -0.082334086 0.43377391 0.0010410397 1184 255
0.20375973 -0.082624957 0.43435332 0.0010656243 1141 248
0.20483364 -0.08218357 0.43112761 0.001066369 1131 246
0.20686851 -0.082132913 0.43000612 0.0010778235 1113 242
0.20931031 -0.082243212 0.42978227 0.0011813405 1040 226
0.2135509 -0.08305081 0.43325561 0.0012101898 917 199
0.21250765 -0.081807941 0.42610312 0.0012615749 867 188
0.2083877 -0.07941746 0.41307279 0.0012031081 925 201
0.20812044 -0.078528158 0.4079479 0.0011968453 944 205
0.20822541 -0.077795394 0.40372276 0.0012886784 932 202
0.21053134 -0.077891201 0.40388003 0.001288409 919 200
0.21247521 -0.07785251 0.40342078 0.0012466633 885 192
0.21104585 -0.076590367 0.39670712 0.001275401 902 196
-0.33084869 -0.1035126 0.55743921 0.0054345224 112 24
nan nan nan 0 143 31
nan nan nan 0 119 25
-0.28323385 -0.090921499 0.48698699 0.0095141651 61 13
nan nan nan 0 27 5
-0.39648613 -0.12952405 0.69177306 0.02906411 20 4
-0.39731517 -0.1309509 0.69857413 0.033977058 22 4
nan nan nan 0 27 5
nan nan nan 0 29 6
nan nan nan 0 28 6
-0.50060165 -0.17108831 0.91009986 0.025248041 32 6
nan nan nan 0 35 7
nan nan nan 0 29 6
-0.47713614 -0.1677155 0.89211863 0.02289754 32 6
nan nan nan 0 30 6
nan nan nan 0 24 5
nan nan nan 0 41 8
nan nan nan 0 188 40
-0.20308331 -0.074944086 0.40024686 0.0018849785 451 98
-0.20133488 -0.075047255 0.40134969 0.0017437714 509 110
-0.19931203 -0.075049207 0.40198129 0.0017502753 547 119
-0.19720151 -0.07501784 0.40249863 0.0016268829 565 123
-0.19367132 -0.074440166 0.40013802 0.0014555295 677 147
-0.19227622 -0.074679628 0.40221959 0.0014843781 723 157
-0.18896139 -0.074170627 0.40031415 0.0012978213 822 179
-0.186262 -0.073894888 0.39969942 0.0012480472 944 205
-0.18355349 -0.073609501 0.39906019 0.0012781679 924 201
-0.18389675 -0.074555106 0.40513128 0.0014592584 721 157
-0.18149151 -0.074395038 0.4052265 0.0014293228 696 151
-0.179407 -0.074364319 0.40604064 0.0013510408 758 165
-0.18022975 -0.075551614 0.41353205 0.0014975615 697 151
-0.17972524 -0.076203361 0.41812313 0.0015421826 617 134
-0.17897256 -0.076763764 0.42223102 0.0015912065 593 129
-0.17842647 -0.07742697 0.42691824 0.001636683 565 123
-0.17996179 -0.079019852 0.436755 0.0017340224 513 111
-0.18083851 -0.080358326 0.44521436 0.0020201064 447 97
nan nan nan 0 331 72
-0.1898399 -0.086434066 0.48111299 0.0025120601 300 65
-0.17676732 -0.081484683 0.45459074 0.0014309684 683 148
-0.17449121 -0.08145009 0.45540372 0.0012507887 891 194
-0.16872384 -0.079764105 0.44694024 0.0010815639 1110 241
-0.16695359 -0.079948589 0.44891605 0.0011193283 1038 226
-0.16607891 -0.080572382 0.45334339 0.0011905782 976 212
-0.16320592 -0.080230407 0.45231479 0.0010960618 1086 236
-0.16443831 -0.081924543 0.46275374 0.0011492298 1050 228
-0.16359098 -0.08261466 0.46752015 0.0011860502 1002 218
-0.15831088 -0.081054322 0.45951504 0.0010287575 1211 255
-0.15623541 -0.081113964 0.46065161 0.0010478266 1197 255
-0.154936 -0.081583962 0.46409661 0.0011042557 1082 235
-0.15444624 -0.082499996 0.4700647 0.0011538784 1052 229
-0.1533656 -0.083122633 0.47434762 0.0011501031 1026 223
-0.15554532 -0.085557118 0.48896915 0.001229695 900 195
-0.15661435 -0.087444924 0.50047493 0.0013769248 766 166
-0.15883036 -0.090040781 0.51604116 0.0014384685 699 152
-0.15227696 -0.087668709 0.50310957 0.001303183 816 177
-0.14903349 -0.087157346 0.50080758 0.0011851453 960 209
-0.14579889 -0.086634867 0.49840799 0.001151682 1002 218
-0.14336523 -0.086579002 0.49866334 0.0011976088 1005 218
-0.1413012 -0.086748205 0.50019068 0.0011730905 968 210
-0.13945505 -0.087059148 0.50251406 0.0012287624 944 205
-0.13718714 -0.087112933 0.50333124 0.001175215 957 208
-0.13551395 -0.087552853 0.50635904 0.0012075665 943 205
-0.133212 -0.087594934 0.50706589 0.0011842571 944 205
-0.13092721 -0.087650038 0.50782645 0.0011990085 931 202
-0.12919232 -0.088082097 0.51075184 0.0012176913 914 199
-0.12871875 -0.089406461 0.51883852 0.0012774846 839 182
-0.12637873 -0.089460291 0.51953775 0.0012812004 832 181
-0.12404558 -0.08952117 0.52025861 0.0012757599 841 183
-0.12099365 -0.089055426 0.51789778 0.0012847459 878 191
-0.11915308 -0.089480489 0.52069867 0.0012851546 829 180
-0.11733937 -0.089943737 0.52370685 0.0012972679 823 179
-0.11514647 -0.090129763 0.52508569 0.0013335571 785 170
-0.11283043 -0.090225376 0.52592164 0.0013036529 813 177
-0.11040986 -0.090239778 0.52626824 0.0013612469 832 181
-0.10808334 -0.090333425 0.52706176 0.0012825587 834 181
-0.10592987 -0.090579383 0.52872962 0.0012665305 906 197
-0.10239657 -0.089629196 0.52339917 0.0011757049 963 209
-0.10015097 -0.089787401 0.52452558 0.0011454489 1008 219
-0.097985946 -0.090027504 0.52611792 0.0011586328 997 217
-0.095726222 -0.090190612 0.5272485 0.001175464 1016 221
-0.093485296 -0.090380415 0.5285235 0.0011616698 984 214
-0.091374755 -0.090709835 0.53060436 0.0011724251 960 209
-0.089077868 -0.090867326 0.53166908 0.0011986191 952 207
-0.08664766 -0.090893894 0.53195745 0.0012025154 953 207
-0.084180474 -0.090882093 0.53201109 0.0011874858 942 205
-0.081873298 -0.091047518 0.53309286 0.0012480137 940 204
-0.079428799 -0.09106575 0.53330386 0.0011633268 966 210
-0.076845601 -0.090921044 0.53255194 0.0011666242 974 212
-0.074559815 -0.091130286 0.53386503 0.0012260743 935 203
-0.072445609 -0.091570705 0.53652531 0.0012669752 923 200
-0.070216298 -0.091891654 0.53847903 0.0012690987 910 198
-0.067829676 -0.092022695 0.53931332 0.0012105575 906 197
-0.065424033 -0.092136927 0.54004294 0.0012998739 899 195
-0.062945493 -0.092153475 0.54019403 0.0012365867 905 197
-0.060391262 -0.092056006 0.53967118 0.0012455881 885 192
-0.058090411 -0.092352994 0.54145563 0.0012465529 873 190
-0.055980992 -0.092994653 0.5452565 0.001292647 823 179
-0.054026823 -0.093966633 0.55099034 0.0013216487 791 172
-0.052172966 -0.095217571 0.55835646 0.0014024868 724 157
-0.051043026 -0.097988017 0.57463032 0.0015027128 652 141
-0.048593238 -0.098389253 0.57700783 0.0016391273 630 137
-0.045705087 -0.097898014 0.574148 0.0014681933 687 149
-0.042388611 -0.096372575 0.56521946 0.0014056046 738 160
-0.039744947 -0.096277222 0.56467539 0.0013741251 762 165
-0.036997985 -0.095900767 0.56248033 0.0013152885 801 174
-0.034315266 -0.095646665 0.56100059 0.0013164709 825 179
-0.031531669 -0.095047086 0.55749273 0.0012576386 856 186
-0.028855523 -0.09469378 0.55542773 0.0012734046 873 190
-0.026362821 -0.094932303 0.55683273 0.0012960262 827 180
-0.023937615 -0.095491476 0.56011748 0.0013639958 755 164
-0.02116885 -0.094649695 0.55518365 0.0013439215 769 167
-0.018457809 -0.093870096 0.55061376 0.0013341033 784 170
-0.015948219 -0.094029814 0.55155277 0.0013668878 750 163
-0.013677607 -0.095926113 0.56267774 0.0014813724 685 149
-0.011456582 -0.099138379 0.58152133 0.0016311461 611 133
-0.0089171287 -0.100715 0.59077048 0.0016190981 581 126
-0.0061903936 -0.10063236 0.59028631 0.0017070058 582 126
-0.0034554841 -0.10018323 0.58765215 0.0016216731 607 132
-0.0007341021 -0.098295063 0.57657677 0.0015226117 639 139
0.0019311166 -0.098753385 0.57926512 0.0015798181 625 136
0.0046736151 -0.10033903 0.58856601 0.0017293539 596 129
0.0073797228 -0.10026588 0.58813632 0.0016825525 611 133
0.01003405 -0.099717438 0.58491856 0.0015911304 612 133
0.012747637 -0.099865451 0.58578563 0.0015822132 599 130
0.015566071 -0.10063961 0.59032506 0.0015968373 595 129
0.018261144 -0.10050455 0.58953083 0.0016336459 576 125
0.020923601 -0.1002482 0.58802438 0.0016130733 584 127
0.023613254 -0.10016597 0.58753854 0.0015928546 593 129
0.026169516 -0.099593014 0.58417332 0.001702288 599 130
0.029108718 -0.10044836 0.58918494 0.001630098 578 125
0.031218899 -0.098541029 0.57799059 0.0015572379 611 133
0.033746731 -0.098148197 0.57567817 0.0014912109 655 142
0.036424205 -0.098216102 0.57606655 0.0015013017 639 139
0.039082326 -0.098226145 0.57611358 0.0015526294 643 140
0.041593067 -0.097888067 0.57411653 0.0014280298 694 151
0.044217933 -0.097842954 0.57383537 0.0014983512 714 155
0.046771657 -0.09765438 0.5727101 0.001401812 722 157
0.049448464 -0.097729221 0.57312655 0.0014179959 710 154
0.052138254 -0.097820818 0.5736379 0.0015168464 678 147
0.054723993 -0.097717792 0.57300407 0.0014730535 665 144
0.057327915 -0.097655214 0.57260334 0.0015364666 651 141
0.059768792 -0.097332634 0.57067388 0.0015090785 695 151
0.062276214 -0.097141027 0.56950766 0.0014669272 689 150
0.06488964 -0.097123608 0.5693574 0.0015205285 673 146
0.068276957 -0.098220818 0.57573521 0.0015372316 625 136
0.071696058 -0.099279933 0.58188212 0.0017503211 571 124
0.074513353 -0.099459365 0.58286589 0.0016227375 571 124
0.075710818 -0.097539455 0.57154083 0.0015222223 632 137
0.077349223 -0.096297659 0.56418449 0.001557611 667 145
0.078237981 -0.094233818 0.55200678 0.0014424003 753 163
0.080492795 -0.093893558 0.54991978 0.0014040412 801 174
0.082865775 -0.093707733 0.54872912 0.001429879 790 172
0.085316502 -0.093618236 0.54809368 0.001338419 774 168
0.088130563 -0.093921095 0.54974556 0.001441857 736 160
0.090409867 -0.093653053 0.54804558 0.0014176692 760 165
0.092790455 -0.093501672 0.54701805 0.0013680302 779 169
0.095429793 -0.093612149 0.54751146 0.0013494223 763 166
0.097043671 -0.092736952 0.54222959 0.001368949 781 170
0.10033896 -0.093472168 0.54635161 0.0013462382 770 167
0.10308693 -0.093673952 0.54734105 0.0013611338 753 163
0.10621949 -0.09420713 0.55025166 0.0013891053 738 160
0.11052179 -0.095728539 0.55891562 0.0014821453 664 144
0.11325801 -0.095854908 0.5594157 0.0014899911 657 143
0.11312438 -0.093601078 0.54601467 0.0014654242 709 154
0.11411767 -0.092357866 0.53850251 0.0013533736 764 166
0.11581101 -0.091722295 0.53452241 0.001353566 779 169
0.11755946 -0.091156103 0.5309335 0.0013233322 788 171
0.12013547 -0.091241688 0.53112483 0.0013645957 785 170
0.12285721 -0.091432281 0.53190839 0.0013561521 771 167
0.1250077 -0.091198593 0.53020519 0.0013446052 779 169
0.12697546 -0.090843223 0.52777755 0.0013221343 804 175
0.12925795 -0.090722211 0.52669346 0.0013005752 808 175
0.13154872 -0.090611435 0.52564919 0.0013049769 833 181
0.13335872 -0.090179577 0.52272362 0.0012608018 861 187
0.13554312 -0.090011872 0.52131033 0.0012416313 876 190
0.13804688 -0.090058409 0.52111596 0.001232715 879 191
0.13999321 -0.089745983 0.51882297 0.0012333792 886 192
0.14160419 -0.089232869 0.51535082 0.0012097749 918 199
0.14500977 -0.089848906 0.51837498 0.0012353226 892 194
0.14684966 -0.089490511 0.51575089 0.0012202191 898 195
0.14930667 -0.089513682 0.51530254 0.0013129567 870 189
0.15119351 -0.089199759 0.51288944 0.0012506458 868 189
0.15261006 -0.08862257 0.50894231 0.0013173054 855 186
0.15383212 -0.087952033 0.50444132 0.0012520411 898 195
0.15597436 -0.087819979 0.50300735 0.0012111348 914 199
0.15820681 -0.087741941 0.50185668 0.0012122494 905 197
0.15956171 -0.087186687 0.49795362 0.0011862443 940 204
0.16248332 -0.087491192 0.4989346 0.0012230037 920 200
0.1646239 -0.087372459 0.49747169 0.0011935182 935 203
0.16744611 -0.087613732 0.49802834 0.0012661933 917 199
0.1709051 -0.088176832 0.50037754 0.001339967 802 174
0.17353781 -0.088303991 0.50021666 0.0013423015 777 169
0.17433761 -0.087507665 0.49480209 0.0013070162 872 189
0.17385629 -0.086098216 0.48591501 0.0011731336 956 208
0.17627257 -0.086142018 0.48521608 0.0011725241 976 212
0.17844407 -0.086066604 0.48381838 0.0012315294 970 211
0.1809319 -0.086143754 0.48325139 0.0012119216 938 204
0.18524566 -0.087077238 0.48745051 0.0012951515 824 179
0.18769658 -0.087122627 0.48664168 0.0012780697 835 181
0.18696775 -0.085709244 0.47767833 0.0011710571 964 209
0.18842134 -0.085318685 0.47441688 0.0011340479 1031 224
0.190579 -0.085252501 0.47294644 0.0011612722 984 214
0.19362089 -0.08557874 0.47363341 0.0012454198 872 189
0.19589077 -0.085560068 0.47239456 0.0013261541 811 176
0.19603801 -0.084625535 0.46610233 0.0012476636 880 191
0.19435437 -0.082931325 0.45565602 0.0011563358 992 216
0.19620174 -0.082765236 0.45362988 0.0011956079 1015 221
0.19738293 -0.082325049 0.45011371 0.0011892142 1012 220
0.19647367 -0.081032507 0.44196972 0.0011130766 1094 238
0.19650103 -0.080150478 0.43610853 0.0010385036 1189 255
0.19857362 -0.080112815 0.43487442 0.0010348805 1188 255
0.20055817 -0.080040835 0.43348253 0.0010631611 1177 255
0.20293331 -0.080124617 0.43296754 0.0011270962 1107 241
0.2046127 -0.079934813 0.43101591 0.0011270574 1084 236
0.20683843 -0.079960175 0.43027321 0.0011665961 1055 229
0.20898078 -0.079953134 0.42940953 0.0011951959 1011 220
0.21126567 -0.080000199 0.42889574 0.0012053032 932 202
0.20861812 -0.078197449 0.41854596 0.0012047965 931 202
0.20623106 -0.076527536 0.40900549 0.0011399081 1015 221
0.20754023 -0.076248743 0.40698758 0.0011878472 1013 220
0.20789042 -0.07562656 0.40321857 0.0012038369 980 213
0.2098992 -0.07561399 0.40278199 0.0011670754 990 215
0.21156257 -0.075478427 0.40177175 0.0012166837 966 210
0.21272627 -0.075168885 0.39991903 0.0012119561 915 199
-0.35107452 -0.10687237 0.59115231 0.0075519197 79 17
-0.34114426 -0.10473498 0.57822347 0.0065767923 102 22
nan nan nan 0 142 30
-0.28922865 -0.090336904 0.49704829 0.0051780189 132 28
nan nan nan 0 75 16
nan nan nan 0 30 6
-0.39492607 -0.12664603 0.69413483 0.028472802 23 5
nan nan nan 0 24 5
nan nan nan 0 25 5
nan nan nan 0 26 5
nan nan nan 0 32 6
nan nan nan 0 28 6
nan nan nan 0 32 6
-0.47334382 -0.16188623 0.88512951 0.022862582 35 7
nan nan nan 0 41 8
nan nan nan 0 30 6
nan nan nan 0 30 6
nan nan nan 0 115 25
-0.20290765 -0.072855771 0.40009323 0.0020944078 385 83
-0.20126584 -0.072994195 0.40143305 0.0017675607 527 114
-0.19932234 -0.073024914 0.40224999 0.0016051648 573 124
-0.19619429 -0.072617814 0.40071478 0.0015764193 638 138
-0.19354832 -0.072382547 0.40017867 0.0013950681 732 159
-0.19086112 -0.072126769 0.39957497 0.0013189062 799 173
-0.18862964 -0.072039589 0.39994645 0.0013211484 850 185
-0.18740954 -0.07234095 0.40251645 0.0012413129 882 192
-0.18556549 -0.072405383 0.40380523 0.0013448058 809 176
-0.18437831 -0.07273034 0.40657845 0.0013480926 809 176
-0.18243107 -0.072759368 0.40772259 0.0014458335 725 157
-0.18185978 -0.073343948 0.41200316 0.0015202791 664 144
-0.18214625 -0.074291632 0.41835406 0.0016048196 619 134
-0.18028067 -0.074373245 0.41984665 0.0015733651 605 131
-0.18053783 -0.075342581 0.42636526 0.0017769232 554 120
-0.1787166 -0.075457141 0.42805734 0.0016902618 540 117
-0.18209611 -0.07779631 0.442395 0.0019765741 482 104
-0.18344975 -0.079315767 0.45211214 0.0017366229 510 111
nan nan nan 0 631 137
-0.175833 -0.077893332 0.44607216 0.0011884611 932 202
-0.17227367 -0.07726723 0.44348434 0.0010278575 1221 255
-0.17030324 -0.077346981 0.44491976 0.0010969331 1121 244
-0.16879821 -0.077642821 0.4475801 0.0012172943 905 197
-0.16768822 -0.078130387 0.45133114 0.0012540614 859 187
-0.16542119 -0.078084581 0.45198131 0.0012344914 957 208
