# .PCD v0.7 - Point Cloud Data file format
VERSION 0.7
FIELDS x y z noise intensity gray
SIZE 4 4 4 4 2 1
TYPE F F F F U U
COUNT 1 1 1 1 1 1
WIDTH 941
HEIGHT 1
VIEWPOINT 0 0 0 1 0 0 0
POINTS 941
DATA ascii
nan nan nan 0 142 30
nan nan nan 0 94 20
-0.26188466 -0.25035083 0.7018978 0.0079894355 87 18
-0.25816855 -0.25016642 0.70247275 0.0040707891 158 34
nan nan nan 0 142 30
-0.25181937 -0.25086105 0.70673281 0.0044238581 171 36
nan nan nan 0 158 34
-0.24354942 -0.24962701 0.70567453 0.0041024671 158 34
nan nan nan 0 120 25
nan nan nan 0 69 14
-0.22890376 -0.24523577 0.69695359 0.0059821424 98 21
-0.22983757 -0.25000846 0.71178788 0.0030034014 249 53
-0.22770071 -0.25153747 0.71741992 0.0031464172 240 51
-0.22436218 -0.25176638 0.71934974 0.0030655768 235 50
-0.21871655 -0.24937217 0.71376711 0.0030624566 253 54
-0.21469434 -0.24878103 0.71332037 0.0034997913 204 44
-0.21193798 -0.24966134 0.71708149 0.0035956104 189 40
-0.20813255 -0.24931481 0.71730649 0.0038251844 190 41
-0.20397429 -0.24852644 0.71623737 0.0037763168 184 39
nan nan nan 0 176 38
nan nan nan 0 160 34
-0.18526773 -0.23798518 0.68918669 0.0038574431 170 36
-0.18511207 -0.24216628 0.70237964 0.0043609724 147 31
nan nan nan 0 139 30
-0.16484179 -0.22389868 0.6513356 0.0034709016 193 41
-0.16435754 -0.22759463 0.66303754 0.0046996437 152 32
-0.17425589 -0.2461009 0.71795213 0.0043488122 152 32
-0.16903587 -0.2435734 0.71154332 0.0035585805 193 41
-0.16370429 -0.24077705 0.70430201 0.0044082906 168 36
-0.15299195 -0.229781 0.67299718 0.0024986288 299 64
-0.14997451 -0.23011653 0.67481583 0.0028257305 290 62
nan nan nan 0 458 98
-0.12310209 -0.19741634 0.58029222 0.0014549423 673 145
-0.121453 -0.19927235 0.58640665 0.001516914 669 144
-0.11869662 -0.19935645 0.58729184 0.001595082 651 140
-0.11594247 -0.19944848 0.58817959 0.0015615701 648 140
-0.11313953 -0.19945905 0.58880639 0.0014652347 674 145
-0.11051451 -0.19979179 0.59036469 0.0014733217 659 142
-0.10816578 -0.20065445 0.59347183 0.0015729917 673 145
-0.10564018 -0.20122652 0.59570312 0.0014996482 646 139
-0.1033731 -0.20233609 0.59951013 0.0015867646 622 134
-0.10161051 -0.20452406 0.6065011 0.0015946734 610 131
-0.099182241 -0.2054607 0.60976934 0.0017246207 582 125
-0.096502759 -0.20591757 0.61159784 0.0015973195 590 127
-0.095087267 -0.20918347 0.62175876 0.0017013272 567 122
-0.093020871 -0.21118045 0.62814069 0.001734755 519 112
-0.09014342 -0.21140724 0.62924337 0.0017574864 513 110
-0.087042838 -0.21110836 0.62876308 0.0017335798 524 113
-0.083466679 -0.20959413 0.62464184 0.0017590631 526 113
-0.08042454 -0.20935905 0.62431222 0.001726147 541 116
-0.077451997 -0.20929408 0.62447238 0.0016357579 570 123
-0.074122794 -0.20822209 0.62160963 0.0015308426 628 135
-0.070685253 -0.20674485 0.61751693 0.0014596484 670 144
-0.067644998 -0.2063527 0.61664671 0.0014267606 701 151
-0.064677685 -0.20615777 0.61634964 0.0015397129 699 151
-0.061915703 -0.20662981 0.61803216 0.0015161971 662 143
-0.059903223 -0.20977305 0.62769401 0.0015613621 618 133
-0.057774141 -0.2128129 0.6370393 0.0017086539 553 119
-0.055041526 -0.21384062 0.64035183 0.0016891938 541 116
-0.051991247 -0.21368177 0.64009774 0.0016786614 548 118
-0.04845228 -0.21137147 0.63338232 0.0016009178 593 128
-0.045590471 -0.21190615 0.63517678 0.0016151841 598 129
-0.042645596 -0.21210265 0.6359449 0.0015348406 629 135
-0.039702587 -0.21233872 0.63681877 0.0015379358 639 138
-0.036709376 -0.21232288 0.63692439 0.0015174224 642 138
-0.033919193 -0.21358263 0.64084452 0.0015165687 640 138
-0.031191153 -0.21551697 0.64677811 0.0015430895 618 133
-0.028189169 -0.21577144 0.64765912 0.0015536471 621 134
-0.025196239 -0.21616513 0.64894581 0.0016286813 614 132
-0.0221384 -0.21603356 0.64864349 0.0016434969 598 129
-0.01915822 -0.21673869 0.6508413 0.0016446195 581 125
-0.016086522 -0.2164795 0.65013152 0.0016086536 581 125
-0.012979544 -0.2155133 0.64728612 0.0016692163 585 126
-0.009951923 -0.2156771 0.64782256 0.0016215032 578 124
-0.0069204122 -0.21586353 0.64841515 0.0017304915 558 120
-0.0039187334 -0.21800162 0.65485877 0.0017040253 532 114
-0.00085273647 -0.21908771 0.65813035 0.0018777341 463 100
0.0022378827 -0.21958804 0.65963072 0.0020558743 420 90
0.0053123031 -0.21884049 0.65737063 0.0018731279 459 99
0.0083811413 -0.21849638 0.65631038 0.0019141518 511 110
0.01144166 -0.21817845 0.65531707 0.001786991 536 115
0.014455146 -0.21728812 0.65259284 0.0016326891 567 122
0.017320381 -0.21486977 0.6452682 0.001666595 591 127
0.02032862 -0.21468097 0.64462799 0.0017267256 549 118
0.023148514 -0.21280956 0.638924 0.0017107769 587 126
0.026084658 -0.2123134 0.63733798 0.0016951883 532 114
nan nan nan 0 478 103
0.030373504 -0.20111413 0.60350174 0.0017211366 529 114
0.032855395 -0.1989913 0.59700662 0.0016927494 542 117
0.035006672 -0.19535717 0.58596909 0.0016230637 571 123
0.037648614 -0.1947913 0.58412617 0.0016716431 548 118
0.040546436 -0.19553626 0.58620179 0.0018001347 535 115
0.043233853 -0.19523634 0.58513224 0.0018488502 536 115
0.046064906 -0.19558217 0.58598566 0.0017529542 541 116
0.048705757 -0.19512691 0.58442652 0.0016529823 555 119
0.051787157 -0.196391 0.58800304 0.0016229982 574 124
0.054713503 -0.19696869 0.58950937 0.0017030006 528 114
0.058401119 -0.20009899 0.59863734 0.001773498 495 106
0.061619993 -0.20140898 0.60230011 0.0019763703 491 106
0.065526187 -0.20475134 0.6120199 0.0019016146 465 100
0.068450317 -0.20487258 0.61209184 0.0017755525 543 117
0.071102783 -0.20420386 0.60978907 0.0015649765 602 130
0.07407666 -0.2044743 0.6102758 0.0016123388 624 134
0.07713107 -0.20493847 0.6113236 0.0015037319 643 138
0.080188341 -0.20537649 0.61227542 0.0015952365 640 138
0.083335198 -0.20600545 0.613778 0.0014945761 652 140
0.086677469 -0.20705889 0.61652482 0.0015266782 625 135
0.089806005 -0.20754987 0.61757642 0.0017150053 583 125
0.092788219 -0.20768234 0.61754173 0.0015464835 618 133
0.09571173 -0.20767933 0.61708558 0.0015976528 633 136
0.098633453 -0.20767276 0.61660016 0.001608487 626 135
0.10177868 -0.20812358 0.61745232 0.0017388301 586 126
0.10499832 -0.20869707 0.61864638 0.0015886655 595 128
0.10813086 -0.20907092 0.61922622 0.0016565847 594 128
0.11231119 -0.21139716 0.62556112 0.0015835497 593 128
0.11539639 -0.21159516 0.62557048 0.0016819376 584 126
0.11734411 -0.20975 0.61952245 0.0016627852 611 132
0.12017331 -0.20953238 0.61826587 0.0015164745 639 138
0.12308839 -0.20947132 0.6174503 0.0015454557 653 141
0.12508269 -0.20788285 0.61211538 0.0015680247 634 137
0.12758876 -0.2071981 0.60942644 0.0016098745 626 135
0.12936775 -0.20538966 0.60341841 0.0015804787 627 135
0.1317357 -0.2045749 0.60031623 0.0014918821 654 141
0.1350747 -0.20527074 0.60162491 0.001520758 632 136
0.13815646 -0.20555463 0.60170019 0.0015666378 609 131
0.13983089 -0.20377603 0.59572119 0.0016534631 597 129
0.13959418 -0.19933982 0.58197469 0.0014584974 676 146
0.14053926 -0.19673286 0.5735749 0.0014061371 727 157
0.14230846 -0.19535804 0.56876236 0.0013939155 778 168
0.14481483 -0.19502819 0.56697851 0.0013680236 743 160
0.14761038 -0.19509277 0.56632245 0.0013729018 746 161
0.1511811 -0.19616079 0.56855446 0.0014223832 734 158
0.15352923 -0.19563261 0.56613886 0.0013730908 748 161
0.15580329 -0.19503035 0.56349593 0.0014056922 751 162
0.15832148 -0.19474928 0.561768 0.0013783 738 159
0.16132689 -0.19506685 0.56175101 0.0015155071 706 152
0.16501473 -0.19618514 0.56401861 0.0014020456 714 154
0.16614583 -0.194277 0.55757654 0.001333298 779 168
0.16882491 -0.19421138 0.55642116 0.0013658692 790 170
0.17157662 -0.19423006 0.55549884 0.0012930995 813 175
0.17491074 -0.1948972 0.55642086 0.001346009 759 164
0.17902209 -0.19639634 0.55970335 0.0014454578 682 147
0.1819278 -0.19654733 0.55913413 0.0015041225 639 138
0.18627307 -0.19822572 0.56290269 0.0015730221 602 130
0.18969238 -0.19888374 0.56376725 0.0017217447 573 123
0.19106425 -0.19740722 0.55859411 0.0016468072 555 119
0.19216546 -0.19569737 0.55278951 0.0017484108 560 121
0.19349089 -0.19426098 0.54778975 0.0015773878 594 128
0.19554937 -0.19359039 0.54498035 0.0016350484 592 127
0.19927688 -0.19456781 0.54683423 0.0017063309 524 113
0.20283604 -0.19535658 0.54817981 0.0019909353 473 102
0.20297894 -0.19287796 0.5403986 0.0016653916 551 119
0.20328924 -0.19062182 0.53329921 0.0016278205 588 127
0.2067973 -0.19138387 0.53469247 0.0016155605 580 125
0.21031284 -0.19213314 0.53609174 0.0017817566 494 106
0.21753213 -0.19620402 0.54679406 0.0020978372 399 86
0.22039051 -0.19628878 0.54642999 0.0020495465 401 86
0.22295637 -0.19611409 0.54540437 0.0020279707 405 87
0.22448799 -0.19504513 0.54195839 0.0024409667 351 75
0.22265622 -0.19111502 0.53063947 0.0021412824 381 82
0.21772099 -0.18464682 0.51236027 0.0020704784 451 97
0.21655303 -0.1814886 0.50334835 0.0018390905 472 102
0.21545915 -0.1784654 0.49478602 0.0018580181 502 108
0.21660709 -0.17734741 0.49157724 0.0017232377 521 112
0.21529007 -0.17425971 0.48297846 0.0017020385 539 116
0.21776217 -0.17427407 0.48304531 0.0017480736 511 110
0.2206184 -0.17459206 0.48402151 0.0017821435 502 108
0.22405161 -0.17535463 0.48629853 0.0018242011 472 102
0.22667062 -0.17547029 0.48684958 0.0019598478 427 92
0.23219605 -0.17780912 0.49363956 0.0023498805 359 77
0.23511077 -0.17812015 0.49487093 0.0022818907 347 74
0.23674235 -0.17746276 0.49347609 0.0023402651 331 71
0.23578627 -0.17489965 0.48683691 0.0022513738 353 76
0.23347361 -0.17139369 0.47761652 0.0022592403 374 80
0.23059846 -0.16755077 0.46749133 0.0020387976 401 86
0.23194936 -0.16682521 0.46610364 0.002036598 407 87
0.23345181 -0.16622211 0.46510664 0.0020615729 395 85
0.24049528 -0.16953713 0.47513735 0.0022230747 355 76
0.24280621 -0.16948354 0.47579315 0.0022884915 341 73
0.24077809 -0.16643177 0.46806607 0.0024557707 324 70
0.24072501 -0.16479085 0.46432969 0.002777691 313 67
0.24116176 -0.16351342 0.46164659 0.0025289359 301 65
-0.38549519 -0.22816585 0.67229736 0.0072569977 79 17
nan nan nan 0 64 13
nan nan nan 0 88 19
nan nan nan 0 64 13
nan nan nan 0 72 15
nan nan nan 0 65 14
nan nan nan 0 41 8
nan nan nan 0 34 7
-0.37365806 -0.23720381 0.68674511 0.0096450262 67 14
-0.36417359 -0.23329848 0.67382741 0.0062284674 114 24
-0.36395949 -0.23531476 0.67807573 0.0051906458 117 25
-0.36135918 -0.2358114 0.67798281 0.0058486862 105 22
-0.3507421 -0.23103671 0.66281897 0.0077387863 79 17
nan nan nan 0 61 13
-0.38352481 -0.25747633 0.73567325 0.0097319465 68 14
-0.37523961 -0.25435331 0.725375 0.0069565778 87 18
-0.36990666 -0.25319004 0.72076237 0.010187983 58 12
nan nan nan 0 63 13
nan nan nan 0 106 22
-0.34791628 -0.24533451 0.69508988 0.0050668214 125 27
-0.3437607 -0.24487075 0.69283462 0.006285389 95 20
-0.3406142 -0.24512358 0.6926918 0.0077538015 77 16
-0.33901736 -0.24650855 0.69582963 0.0083878385 67 14
-0.33855644 -0.24875718 0.70148408 0.0085093966 79 17
-0.33548778 -0.24911714 0.70189768 0.0063013411 96 20
-0.33166513 -0.24891897 0.70083272 0.0065463763 112 24
-0.32806212 -0.24888305 0.70032138 0.005919449 129 27
-0.32493499 -0.24921136 0.70093173 0.0051561529 139 30
-0.32196927 -0.24967214 0.70201278 0.0054739821 113 24
-0.31632718 -0.24804461 0.69732189 0.0093435915 84 18
nan nan nan 0 97 20
nan nan nan 0 112 24
nan nan nan 0 88 19
-0.30573174 -0.25098142 0.70611364 0.009980211 65 14
-0.30130193 -0.25027981 0.70451713 0.0054291906 130 28
-0.29856151 -0.25098154 0.70696509 0.0040966058 162 35
-0.29662222 -0.25238198 0.71147639 0.0042227525 154 33
-0.2910268 -0.25066775 0.70729393 0.0046363738 137 29
nan nan nan 0 134 28
-0.28753757 -0.25391048 0.71800834 0.0044029267 147 31
-0.26694506 -0.23873767 0.67594552 0.0064283768 110 23
-0.26473367 -0.23982377 0.67993224 0.0057118437 112 24
-0.26069126 -0.23925786 0.67929679 0.005580456 120 25
nan nan nan 0 81 17
-0.25933793 -0.2444247 0.696105 0.012341099 45 9
-0.25512797 -0.24373837 0.69528389 0.0043488145 174 37
-0.25493634 -0.24692506 0.70556003 0.0033963907 204 44
-0.25181887 -0.24732752 0.70792949 0.0047289957 165 35
nan nan nan 0 114 24
-0.24282221 -0.24537656 0.70483583 0.0061412533 97 20
nan nan nan 0 134 28
nan nan nan 0 95 20
-0.23261604 -0.24570313 0.70961487 0.0051464513 128 27
-0.23091488 -0.24764279 0.71651518 0.0037073945 211 45
-0.22767586 -0.24796787 0.71875274 0.0035716314 219 47
-0.22431317 -0.24816638 0.7206195 0.0036906532 181 39
nan nan nan 0 136 29
-0.21372776 -0.24417301 0.71153307 0.006586777 89 19
-0.21041904 -0.24438114 0.71337372 0.0056305584 127 27
-0.20689525 -0.2443423 0.71447682 0.004036516 164 35
-0.20342271 -0.2443637 0.71573663 0.0041689486 190 41
-0.19149898 -0.23405653 0.68667346 0.0041236342 162 35
-0.18826671 -0.23419479 0.68818456 0.00454904 144 31
nan nan nan 0 148 31
nan nan nan 0 164 35
nan nan nan 0 187 40
-0.16902491 -0.22634716 0.66916806 0.0053431126 113 24
-0.16284308 -0.22232169 0.65820038 0.0056900224 121 26
-0.17238177 -0.2400254 0.71159422 0.0053743497 127 27
-0.17107658 -0.24304214 0.72150362 0.0034725175 198 42
-0.16604941 -0.2407867 0.7157374 0.0028801716 255 55
nan nan nan 0 252 54
nan nan nan 0 292 63
-0.1257787 -0.19447568 0.58019823 0.0017232018 572 123
-0.12300709 -0.19448578 0.58089149 0.0014578012 675 145
-0.11965233 -0.19355309 0.57874405 0.0014195464 707 152
-0.11808483 -0.19553575 0.58529598 0.0014787774 658 142
-0.11546998 -0.1958382 0.58680445 0.0014782313 684 147
-0.11290449 -0.19624141 0.58859611 0.0015498161 677 146
-0.10960793 -0.19536215 0.5865193 0.0014553946 704 152
-0.10669567 -0.19513978 0.58639127 0.0014503393 757 163
-0.10401477 -0.19533999 0.58751297 0.0013560058 764 165
-0.10154926 -0.19596688 0.58990073 0.0013909929 731 157
-0.099982128 -0.19841217 0.59775048 0.0014156168 707 152
-0.097494788 -0.19912067 0.60035676 0.0014496474 687 148
-0.094360285 -0.1985103 0.59896791 0.0014422154 691 149
-0.091913454 -0.19935364 0.60194761 0.0015185021 677 146
-0.089368954 -0.20003226 0.6044153 0.0014733708 667 144
-0.087314636 -0.20188917 0.6104306 0.001691187 611 132
-0.086071201 -0.20581186 0.62268585 0.0017523265 564 121
-0.083988622 -0.20793451 0.62948912 0.0018274238 531 114
-0.08115866 -0.20829466 0.63094407 0.00175963 514 111
-0.077696264 -0.20699723 0.62735981 0.0018269012 536 115
-0.074346617 -0.20590946 0.62439066 0.0016419565 563 121
-0.071161732 -0.20520717 0.62257183 0.001552618 618 133
-0.067527294 -0.2030925 0.61644828 0.0015578954 674 145
-0.064612567 -0.20304972 0.61659563 0.0014562503 679 146
-0.061582044 -0.20262189 0.61555856 0.001438824 689 148
-0.058716834 -0.20272262 0.61611247 0.0015127672 660 142
-0.056626923 -0.20564944 0.6252448 0.0015796515 605 130
-0.054607593 -0.20916688 0.63616633 0.0017230103 576 124
-0.052154053 -0.21133207 0.64296728 0.0017466716 545 117
-0.049173571 -0.21149692 0.64367086 0.0017032543 536 115
-0.045938164 -0.2105151 0.64087057 0.0016612938 548 118
-0.042799223 -0.20986882 0.63907719 0.0017140354 563 121
-0.039698832 -0.20932843 0.63759255 0.0015984802 598 129
-0.036738399 -0.20949811 0.6382578 0.0016495226 615 132
-0.033889316 -0.21038914 0.64110893 0.0015575485 611 132
-0.030971898 -0.21098809 0.64305878 0.0016520879 602 130
-0.02809553 -0.21202596 0.64633512 0.0016817362 613 132
-0.025049755 -0.21188171 0.64599639 0.0015620711 604 130
-0.021945132 -0.21113166 0.64379847 0.0015832339 612 132
-0.018986357 -0.21176931 0.64582032 0.0016854941 604 130
-0.016008746 -0.21239875 0.64780581 0.0016783049 617 133
-0.01291482 -0.21141855 0.64487034 0.001551864 616 133
-0.0098976064 -0.21147904 0.64509767 0.0015488357 619 133
-0.0068842387 -0.21171096 0.64583641 0.0015466854 614 132
-0.0038772083 -0.21265386 0.64873296 0.0016053058 581 125
-0.00084758137 -0.21469632 0.65497273 0.0017926708 557 120
0.0022222921 -0.21498723 0.65585768 0.0017632536 558 120
0.0052872971 -0.21474285 0.65509808 0.0017033296 587 126
0.008377037 -0.21531369 0.65681392 0.0016618648 601 129
0.011442823 -0.21512759 0.65620911 0.0015346651 628 135
0.014264301 -0.21139959 0.64478964 0.0016327831 626 135
0.017301351 -0.21161085 0.64537472 0.0015777618 598 129
0.020205442 -0.21037498 0.64153516 0.0016633479 599 129
0.023042709 -0.20885347 0.63681376 0.001525142 630 136
0.025995683 -0.20860927 0.6359762 0.0018995724 515 111
0.027611764 -0.19879037 0.60594201 0.0018526454 514 111
0.029902723 -0.19520842 0.59491456 0.0016309674 563 121
0.032446757 -0.1937487 0.59034646 0.0016335759 580 125
0.034988165 -0.19250402 0.58642387 0.0016978453 573 123
0.037651341 -0.19206187 0.58493578 0.0016705364 539 116
0.040304303 -0.19163118 0.5834716 0.0017229656 539 116
0.043120921 -0.19198392 0.58438092 0.0017220231 523 113
0.046152547 -0.19319452 0.58788824 0.0018659979 505 109
0.048961576 -0.19338927 0.58829045 0.0017298819 518 111
0.05172386 -0.19338846 0.588085 0.0016824523 543 117
0.054753006 -0.19433489 0.59074616 0.001690463 540 116
0.057606205 -0.19459566 0.59130836 0.0016831763 543 117
0.061160412 -0.1970914 0.59864485 0.0017169191 523 113
0.064831808 -0.19972853 0.60639012 0.001731279 522 112
0.068461917 -0.20202151 0.61306936 0.0017971975 489 105
0.071218811 -0.20165648 0.61166477 0.0016654757 553 119
0.074066699 -0.20156746 0.61108261 0.0015932587 584 126
0.077117801 -0.20201744 0.61211836 0.0016551575 620 133
0.080075376 -0.20219882 0.61232305 0.0015803756 649 140
0.08291018 -0.20206831 0.6115666 0.0014844997 689 148
0.085881509 -0.20226814 0.61179304 0.0014403637 685 148
0.08911553 -0.20305355 0.61377138 0.001603168 657 141
0.092369206 -0.20383278 0.61571032 0.0015028215 640 138
0.09520185 -0.20366368 0.61476523 0.0016307487 650 140
0.098623857 -0.20472805 0.6175229 0.0015703667 634 137
0.1017371 -0.20510861 0.61819571 0.0015927412 588 127
0.10477988 -0.20532981 0.6183672 0.0016310094 563 121
0.1079514 -0.20578434 0.6192199 0.0018141598 536 115
0.11099513 -0.20597766 0.61926466 0.001822306 512 110
0.11437482 -0.20676836 0.62108189 0.001706398 527 113
0.11713486 -0.2064272 0.61947685 0.0016062607 576 124
0.11914057 -0.20480612 0.61401504 0.0015462375 616 133
0.12158339 -0.20399611 0.61097032 0.0014960206 649 140
0.12412786 -0.20339057 0.60852039 0.0015197017 638 137
0.12641753 -0.20240481 0.60491586 0.0015941107 648 140
0.12893887 -0.20182572 0.6025095 0.0015645479 669 144
0.13165118 -0.20156436 0.60103202 0.0014848609 654 141
0.1351079 -0.20242955 0.60288888 0.0016666071 615 132
0.13611691 -0.19966792 0.59392846 0.0015951239 623 134
0.13653277 -0.19616747 0.582771 0.001464703 672 145
0.13729171 -0.19329081 0.57346922 0.001398289 721 155
0.13937731 -0.19235854 0.5699293 0.0013324522 785 169
0.14176688 -0.19187371 0.56769931 0.0013765497 796 172
0.14443079 -0.19177155 0.56658256 0.0013210842 792 171
0.1473757 -0.19203934 0.56653726 0.001352664 756 163
0.15034375 -0.19232695 0.56652737 0.0013529254 763 164
0.15200546 -0.19096313 0.561638 0.0013272511 802 173
0.15473549 -0.19096583 0.56075472 0.0013103059 799 172
0.15761402 -0.1911485 0.56038082 0.0013085717 799 172
0.16015249 -0.19091959 0.55878341 0.001336743 778 168
0.16304432 -0.19111255 0.5584048 0.0013288461 798 172
0.16585201 -0.19120213 0.55770844 0.0013042171 803 173
0.1687575 -0.19139975 0.55731261 0.0013340723 776 167
0.17182834 -0.19177561 0.55742186 0.001382302 732 158
0.17554602 -0.19285025 0.55954581 0.0014646928 684 147
0.17864801 -0.19322576 0.55962723 0.0015449005 671 145
0.181776 -0.19361755 0.55974782 0.0015021721 645 139
0.18520528 -0.19431372 0.56074154 0.0015941084 587 126
0.18744044 -0.19375493 0.5581156 0.0016129575 575 124
0.18956186 -0.19309658 0.55521482 0.0016005401 584 126
0.19082758 -0.19159795 0.54991853 0.0016459031 605 130
0.19198419 -0.19003372 0.54446316 0.0016454337 623 134
0.19390516 -0.18925911 0.54129928 0.001532422 619 133
0.19820338 -0.19079423 0.54475963 0.0016834832 550 118
0.20209703 -0.19190352 0.54701769 0.0019329897 488 105
0.20178851 -0.18904632 0.53800833 0.001663013 553 119
0.20285583 -0.18753649 0.53288853 0.0015285258 623 134
0.20616905 -0.18811527 0.53374743 0.0015621486 604 130
0.20955737 -0.1887468 0.53479528 0.0017428626 528 114
0.21623534 -0.19228761 0.5441196 0.0020132617 409 88
0.21998835 -0.19317116 0.54596275 0.0022666927 403 87
0.21923245 -0.19012266 0.53675729 0.0019410019 438 94
0.22092156 -0.18924317 0.53374851 0.0022778455 389 84
0.22135858 -0.18732531 0.5278824 0.0021078705 402 86
0.21575901 -0.18040584 0.50800729 0.0019647558 484 104
0.21347755 -0.17639139 0.49640006 0.0017701265 540 116
0.21149078 -0.17271125 0.48581225 0.0016918972 580 125
0.21317165 -0.17207658 0.48386347 0.0017057826 568 122
0.21523726 -0.17176339 0.48288724 0.0017151256 546 117
0.21834564 -0.17228004 0.48431236 0.0017225762 515 111
0.2212934 -0.17265986 0.48542172 0.0019550712 486 105
0.22491552 -0.17355165 0.48804015 0.0021337997 432 93
0.22967118 -0.17528912 0.49310815 0.0021227673 380 82
0.23308317 -0.17597471 0.49528897 0.002401191 346 74
0.23487602 -0.17543624 0.49409315 0.0023035444 346 74
0.23486657 -0.17357716 0.48924008 0.0022184215 359 77
0.22980152 -0.16805966 0.47412232 0.0020308518 402 86
0.22912209 -0.16583039 0.46832222 0.0019181165 441 95
0.2292015 -0.16419035 0.46423349 0.0019737561 444 95
0.23143864 -0.16411355 0.46461636 0.0020692607 433 93
0.23424821 -0.16444017 0.46619806 0.0020711191 409 88
0.2397535 -0.16663387 0.47313774 0.0023871656 365 78
0.24218769 -0.16667096 0.47401664 0.0023329251 339 73
0.24237199 -0.16517405 0.47057685 0.0023668567 323 69
0.24049388 -0.16231404 0.46328041 0.0024157309 318 68
0.23993874 -0.16039298 0.45868471 0.0028023163 308 66
-0.38260436 -0.22322004 0.66680151 0.0065955147 93 20
nan nan nan 0 68 14
nan nan nan 0 69 14
nan nan nan 0 58 12
nan nan nan 0 68 14
nan nan nan 0 65 14
nan nan nan 0 45 9
-0.41779074 -0.25908193 0.76164687 0.017662356 35 7
-0.37453648 -0.23436511 0.68731612 0.0083501413 68 14
-0.36818531 -0.23249923 0.680237 0.0055264211 111 23
-0.36545724 -0.23290786 0.67987639 0.0058208578 102 22
-0.36434153 -0.23436129 0.68261105 0.0058082244 105 22
-0.3582325 -0.23259993 0.67604482 0.0067962548 98 21
-0.36042228 -0.23624465 0.68524396 0.0069095171 89 19
-0.37704653 -0.24951136 0.72232354 0.008534166 74 15
-0.37551177 -0.25090188 0.72501379 0.0075262534 80 17
-0.37568054 -0.25346887 0.73116016 0.0087990398 76 16
nan nan nan 0 99 21
nan nan nan 0 126 27
-0.34804893 -0.24192216 0.69468319 0.0072510173 94 20
-0.34462908 -0.24198259 0.69396579 0.015758516 38 8
-0.34081334 -0.24176335 0.69253427 0.018736165 25 5
-0.33908069 -0.24303265 0.69545287 0.019071678 35 7
-0.33880636 -0.24538478 0.70155251 0.011002214 57 12
-0.33965626 -0.24860969 0.71022964 0.012181925 61 13
-0.3330335 -0.24637553 0.70340669 0.0065166242 95 20
-0.32848984 -0.24564771 0.70098829 0.0045179762 143 30
-0.32541507 -0.24601446 0.70179421 0.0045527075 147 31
-0.32222492 -0.24630107 0.70247209 0.0055731568 110 23
nan nan nan 0 90 19
nan nan nan 0 87 18
nan nan nan 0 96 20
nan nan nan 0 109 23
-0.31038603 -0.25116247 0.71717066 0.0088563329 77 16
-0.30173352 -0.24705805 0.70591098 0.0048212148 138 29
nan nan nan 0 66 14
nan nan nan 0 103 22
nan nan nan 0 135 29
nan nan nan 0 90 19
nan nan nan 0 105 22
-0.27016798 -0.23816857 0.68492365 0.0057130293 116 25
-0.26603514 -0.23756011 0.68415546 0.0071656508 79 17
-0.27189457 -0.24597546 0.70946562 0.0053387955 140 30
nan nan nan 0 122 26
-0.25872955 -0.24036795 0.695539 0.014148981 44 9
-0.255007 -0.24014273 0.69607067 0.0040258695 158 34
-0.25367734 -0.24219581 0.70324796 0.0025487784 294 63
-0.2518841 -0.2438577 0.70933557 0.0033901869 205 44
nan nan nan 0 160 34
nan nan nan 0 132 28
nan nan nan 0 116 25
nan nan nan 0 139 30
-0.2340093 -0.24364398 0.71523505 0.0037632273 181 39
-0.23054992 -0.24371947 0.71677089 0.0041117002 162 35
nan nan nan 0 154 33
-0.21907036 -0.23890392 0.70516294 0.0045813909 139 30
nan nan nan 0 139 30
-0.21306489 -0.23993862 0.7107324 0.0057239137 105 22
-0.20958133 -0.23993121 0.71194279 0.0061055389 121 26
-0.2058643 -0.23965181 0.71232516 0.0079249078 82 17
-0.20255744 -0.23984846 0.7141006 0.0043933024 152 32
-0.18967055 -0.22851028 0.68145627 0.0048282249 130 28
-0.18543847 -0.22738145 0.67917436 0.0039584027 167 36
-0.19021457 -0.23745731 0.71037781 0.0036698456 182 39
nan nan nan 0 156 33
-0.18036589 -0.2336152 0.70098603 0.0047195605 159 34
-0.16585194 -0.21892555 0.65785617 0.0043388717 149 32
-0.16400683 -0.22071199 0.66415459 0.0050783115 141 30
-0.17149509 -0.23537976 0.70925665 0.0043437178 148 31
-0.17090689 -0.23933275 0.722121 0.0028872143 261 56
-0.16663238 -0.23818046 0.71956462 0.0030907292 251 54
nan nan nan 0 297 64
-0.13013943 -0.1940577 0.5876978 0.001984736 414 89
-0.12528875 -0.19095093 0.57896042 0.0014418383 692 149
-0.12234755 -0.19067974 0.57878673 0.0014861079 692 149
-0.11962858 -0.19075038 0.57962841 0.0014521618 688 148
-0.11726425 -0.19140321 0.58222026 0.0016420875 649 140
-0.11515565 -0.19251524 0.58619308 0.0014960254 657 141
-0.11282884 -0.19330856 0.58918047 0.0015239954 639 138
-0.10966781 -0.19267668 0.5878039 0.0014828994 653 141
-0.10665537 -0.19227964 0.58712071 0.0014409557 718 155
-0.10391795 -0.1923704 0.58790642 0.0014425303 764 165
-0.10122783 -0.19255617 0.58896393 0.0013892414 799 172
-0.098646276 -0.19296481 0.59068549 0.0014079964 773 167
-0.096789785 -0.19485702 0.59693509 0.0013876035 739 159
-0.093762815 -0.19443569 0.59608239 0.0014664892 706 152
-0.090986148 -0.19452342 0.59677178 0.001375449 749 161
-0.089113556 -0.1966114 0.60358435 0.0014580062 695 150
-0.08642637 -0.19698073 0.60510844 0.0015816715 666 143
-0.083748363 -0.19739692 0.60676104 0.0015381648 650 140
-0.081124708 -0.1979752 0.60889715 0.0015164736 637 137
-0.080126993 -0.20270929 0.62380773 0.0016795578 540 116
-0.078220412 -0.20541684 0.63247842 0.0017564548 516 111
-0.075269356 -0.20548722 0.63301766 0.0017639261 526 113
-0.071362525 -0.20284665 0.62518591 0.001667353 582 125
-0.067813143 -0.20103882 0.61989927 0.0015390423 618 133
-0.064641245 -0.20023805 0.61769933 0.0015278296 656 141
-0.061609447 -0.19981641 0.61665303 0.0014613899 670 144
-0.058672849 -0.19967711 0.61646354 0.0014781588 662 143
-0.056018185 -0.20053266 0.61933243 0.0016579444 631 136
-0.053387228 -0.20157133 0.62275565 0.0016158931 622 134
-0.050993606 -0.20367821 0.62946922 0.001654216 606 130
-0.04920388 -0.20860423 0.644889 0.0016501106 565 122
-0.046382751 -0.20951621 0.64789194 0.0018299761 555 119
-0.043310124 -0.20934036 0.64751875 0.0017578535 557 120
-0.039811037 -0.20692146 0.64019287 0.0017445823 588 127
-0.036778402 -0.20673038 0.63974535 0.0015654181 609 131
-0.033833753 -0.20704378 0.64084715 0.0015841688 597 129
-0.030952984 -0.20784721 0.64345443 0.0016069812 585 126
-0.028020203 -0.20843692 0.64538908 0.0016027377 581 125
-0.024980269 -0.20827571 0.6449874 0.0015747144 596 128
-0.021954343 -0.20820305 0.64484823 0.0016974279 591 127
-0.018948236 -0.20832516 0.6453011 0.0015825179 592 127
-0.015955633 -0.20867011 0.64643312 0.0015670366 610 131
-0.012892984 -0.20804617 0.64455235 0.0015309216 631 136
-0.0098847076 -0.20818648 0.64502835 0.0015291349 626 135
-0.0068486994 -0.20760942 0.64327061 0.0015130671 631 136
-0.0038463196 -0.20794621 0.64433342 0.001508452 645 139
-0.00083248538 -0.20786022 0.64407545 0.0015391443 624 134
0.0021722808 -0.20714715 0.64186352 0.0015218825 638 137
0.0051573212 -0.20647174 0.63975751 0.0014877464 655 141
0.0081989262 -0.20772545 0.64361799 0.0014867778 662 143
0.011166072 -0.2069259 0.64110571 0.0016210523 645 139
0.014169995 -0.20700212 0.64129603 0.001524754 633 136
0.01719985 -0.20736437 0.64236128 0.0015356486 636 137
0.02000254 -0.20528747 0.63586015 0.001538995 635 137
0.023017175 -0.20564194 0.63687932 0.0017071597 579 125
0.025697716 -0.20327239 0.62945199 0.0017734097 503 108
0.02744049 -0.19473524 0.60292006 0.0016793591 543 117
0.029843686 -0.19204003 0.59447008 0.0016860946 550 118
0.032588147 -0.19181329 0.59365201 0.0017369144 533 115
0.03501628 -0.18990666 0.58762521 0.0018136387 532 114
0.03752717 -0.18869394 0.58373666 0.0017259531 559 120
0.040276889 -0.18876532 0.58380985 0.0016835174 571 123
0.042521607 -0.18661132 0.57699096 0.0015888945 593 128
0.045224003 -0.18660344 0.5767979 0.001579861 602 130
0.048007123 -0.18691073 0.5775668 0.0015612728 608 131
0.051469784 -0.18968959 0.58595788 0.0016134934 578 124
0.054352447 -0.1901575 0.58719444 0.0015797757 597 129
0.057807844 -0.19248733 0.59416449 0.001678928 561 121
0.061016522 -0.19381897 0.59803575 0.0016579812 549 118
0.064209677 -0.19498625 0.60138297 0.0016308411 573 123
0.06812799 -0.19816439 0.61091214 0.0016945734 538 116
0.071333461 -0.19909586 0.61349481 0.0018133624 511 110
0.073997781 -0.19850326 0.61136562 0.0016809159 579 125
0.07703983 -0.19893037 0.61236191 0.0016520693 590 127
0.080057241 -0.19926533 0.61305749 0.0015663191 608 131
0.08294037 -0.19925436 0.61267215 0.001477995 653 141
0.085772395 -0.1991255 0.61190772 0.0015041942 680 146
0.08868181 -0.1991789 0.61168671 0.0014263294 701 151
0.091829367 -0.19974683 0.6130271 0.0015193225 676 146
0.094811395 -0.19993107 0.6131708 0.0014762968 665 143
0.09806937 -0.20066902 0.61499214 0.001561867 651 140
0.10164095 -0.20198764 0.61856979 0.0016175756 573 123
0.10468058 -0.20220494 0.61875194 0.0018152035 544 117
0.10746895 -0.20193826 0.61743337 0.0017058762 533 115
0.10927399 -0.19988699 0.61064428 0.0016485278 571 123
0.11247707 -0.20043296 0.61177319 0.001691732 569 122
0.11567625 -0.20094466 0.61277366 0.0016556279 553 119
0.11879477 -0.20129459 0.61325723 0.0016733238 544 117
0.12159009 -0.20109318 0.61203915 0.0016247045 563 121
0.12403228 -0.20033084 0.6090948 0.001579314 610 131
0.12668958 -0.19994287 0.60727006 0.0015455548 612 132
0.1291918 -0.19933297 0.60475218 0.0016699124 615 132
0.13241996 -0.19984531 0.60561663 0.001562962 611 132
0.13359103 -0.19729765 0.59719223 0.0015771693 634 137
0.13308609 -0.19243339 0.58176005 0.0014638932 667 144
0.13382013 -0.18952349 0.57224268 0.0014789015 724 156
0.13587527 -0.18856403 0.56860715 0.0014247373 761 164
0.13882791 -0.18886335 0.56874788 0.0013286273 780 168
0.14165789 -0.18898745 0.56833726 0.001317972 799 172
0.14420249 -0.18873338 0.56676793 0.0013534757 770 166
0.14682306 -0.18858631 0.56550002 0.0014080001 760 164
0.14912841 -0.18804714 0.56303817 0.0013080911 821 177
0.15138802 -0.18747067 0.56044906 0.0012329064 879 189
0.15397045 -0.18730728 0.5590781 0.0012338214 886 191
0.15683091 -0.18748187 0.55869651 0.0012695211 867 187
0.15982462 -0.18780711 0.558743 0.0012905475 829 179
0.16256589 -0.18782978 0.55787003 0.0013306619 819 176
0.16576752 -0.18837488 0.55852985 0.0013342059 779 168
0.16871996 -0.1886237 0.55829233 0.0014423255 707 152
0.17163606 -0.18882462 0.55789769 0.0014318496 696 150
0.17432883 -0.1887774 0.55675793 0.0014470811 700 151
0.17674506 -0.18843678 0.55474603 0.0014619553 676 146
0.18145786 -0.19051775 0.55984735 0.0015149236 630 136
0.18433221 -0.19063506 0.55916274 0.0016748843 595 128
0.18690287 -0.19043949 0.55756027 0.0015733331 597 129
0.18746889 -0.18823673 0.55009675 0.0015639317 598 129
0.18905024 -0.18710203 0.54577875 0.0016533204 630 136
0.19063987 -0.18600748 0.54159969 0.0015175071 631 136
0.19302781 -0.18571156 0.53976738 0.0015385071 640 138
0.19495255 -0.18498421 0.53670466 0.0015462867 609 131
0.20021243 -0.18739827 0.54277062 0.0016998406 532 114
0.2027216 -0.18720753 0.5413084 0.0016715843 543 117
0.20297129 -0.18496282 0.53395104 0.0015559496 606 130
0.20539667 -0.18473344 0.5324595 0.0015874672 590 127
0.20827121 -0.18490872 0.53217596 0.0017052651 527 113
0.21602301 -0.18935472 0.54421097 0.0021853554 435 94
0.21971653 -0.19017653 0.54586053 0.0020244974 410 88
0.21805829 -0.18640313 0.53438658 0.0018663581 457 98
0.21992277 -0.18569654 0.53177905 0.0021967485 417 90
0.21950923 -0.18310678 0.52385068 0.0020134838 413 89
0.21246532 -0.17511415 0.50055677 0.0017056193 528 114
0.21017161 -0.1711791 0.48895383 0.0015758846 599 129
0.210503 -0.169449 0.48372567 0.0015438688 614 132
0.21274655 -0.16928026 0.48302469 0.0016466518 609 131
0.21624824 -0.17010505 0.48522627 0.001632672 561 121
0.21980183 -0.17095162 0.48755816 0.0017792576 494 106
0.22366183 -0.172015 0.4905782 0.0020786475 450 97
0.22751282 -0.17304805 0.4935832 0.0022396296 383 82
0.23092853 -0.17373113 0.49566206 0.0023033556 356 76
0.23208778 -0.17272018 0.49297836 0.0022261618 362 78
0.2332139 -0.17170644 0.49035388 0.0020391562 401 86
0.22838593 -0.16637661 0.47546014 0.0019466601 434 93
0.22744024 -0.16395676 0.46893159 0.0020077932 473 102
0.22656271 -0.16163562 0.46273613 0.0019271633 490 105
0.22871324 -0.16150017 0.46285191 0.0019936303 472 102
0.23180683 -0.1620266 0.46492508 0.0020399617 442 95
0.23444341 -0.16222627 0.46612081 0.002028822 410 88
0.24042581 -0.16471417 0.47395846 0.0022929756 370 79
0.24178872 -0.16401945 0.47270054 0.0023960315 335 72
0.24186772 -0.16247585 0.46903849 0.0025040107 343 74
0.2401146 -0.1597431 0.46197286 0.0023452376 333 71
0.23701984 -0.1561785 0.45251614 0.0023373433 335 72
-0.38464648 -0.22115935 0.66976029 0.0063698855 89 19
-0.3396073 -0.19692828 0.59522831 0.0087712687 67 14
nan nan nan 0 60 12
nan nan nan 0 64 13
-0.38643304 -0.22996378 0.6901058 0.0061280685 101 21
-0.38334611 -0.23014064 0.68889445 0.0091039324 68 14
nan nan nan 0 59 12
nan nan nan 0 56 12
-0.37213349 -0.2294869 0.68189764 0.006307791 92 19
-0.37162098 -0.23126797 0.68559211 0.0079724472 72 15
-0.36904663 -0.23178704 0.68558657 0.01178446 45 9
-0.36760119 -0.23303138 0.68777591 0.012774974 50 10
-0.36526769 -0.2337309 0.68840885 0.010465375 56 12
-0.36484057 -0.23567517 0.69275963 0.0079867616 73 15
-0.36280048 -0.23660481 0.69418168 0.0069594444 88 19
-0.36705291 -0.24169591 0.70785481 0.0060793585 98 21
nan nan nan 0 98 21
nan nan nan 0 112 24
-0.34747612 -0.23565026 0.6869179 0.0051065208 125 27
-0.34478816 -0.23618266 0.68755502 0.0064145206 94 20
nan nan nan 0 56 12
-0.33693278 -0.23554696 0.6841411 0.011803382 48 10
-0.33641189 -0.23762558 0.68952686 0.0081686862 69 14
nan nan nan 0 85 18
nan nan nan 0 79 17
nan nan nan 0 49 10
-0.32939246 -0.24275306 0.70272535 0.0068880538 89 19
-0.32598644 -0.24287499 0.7029115 0.0043140254 148 31
-0.32248712 -0.24292926 0.70300537 0.0054866141 121 26
-0.31690204 -0.24139601 0.69860828 0.0058097336 107 23
-0.31420684 -0.24205427 0.70065612 0.0059738755 105 22
nan nan nan 0 111 23
nan nan nan 0 126 27
-0.30752245 -0.24523908 0.71092081 0.0051296055 138 29
-0.29900095 -0.24127279 0.69995928 0.0051866188 121 26
nan nan nan 0 111 23
-0.30884686 -0.25527585 0.74200475 0.0098061338 75 16
-0.30218172 -0.2528398 0.73576075 0.0055685248 111 23
nan nan nan 0 110 23
nan nan nan 0 98 21
nan nan nan 0 151 32
nan nan nan 0 151 32
-0.27255321 -0.24299812 0.71220255 0.0042251037 152 32
-0.24346951 -0.21995176 0.6457296 0.0058021876 111 23
-0.24205039 -0.22161376 0.65172803 0.010147249 56 12
-0.25669637 -0.2382305 0.70183295 0.0054417206 111 23
-0.25289625 -0.23795106 0.7022745 0.0024200147 318 68
-0.25498486 -0.24328224 0.71932465 0.0030271127 241 52
-0.25155419 -0.24342424 0.72107875 0.0034031551 203 43
-0.24592935 -0.24141642 0.71646607 0.0036923168 219 47
-0.24649389 -0.24551462 0.72999305 0.0035731799 189 40
-0.23744155 -0.24001355 0.71497262 0.0027801192 273 58
-0.23420787 -0.24031691 0.71721172 0.0030347421 233 50
-0.23045266 -0.24008627 0.71785152 0.0040378319 161 34
nan nan nan 0 138 29
-0.21841592 -0.23473848 0.70442742 0.0051009348 123 26
nan nan nan 0 180 38
-0.21275808 -0.236121 0.71109611 0.0049658851 153 33
nan nan nan 0 148 31
nan nan nan 0 98 21
nan nan nan 0 77 16
-0.19826949 -0.23540844 0.71372473 0.0038289528 175 37
-0.19488798 -0.23550524 0.71515149 0.0034794419 203 43
-0.19088152 -0.2348367 0.71422505 0.0043950141 170 36
nan nan nan 0 172 37
-0.18611516 -0.23756842 0.72468358 0.0052539655 145 31
nan nan nan 0 201 43
-0.17767181 -0.23563664 0.72081161 0.0052580461 118 25
-0.17359677 -0.23481147 0.71925193 0.003799916 180 38
-0.16733781 -0.23093884 0.70831001 0.0033470413 213 46
nan nan nan 0 218 47
nan nan nan 0 264 57
-0.13015734 -0.1912718 0.58879709 0.0017491814 514 111
-0.12514158 -0.18796268 0.57926977 0.0015559898 643 138
-0.12247869 -0.18811792 0.58038622 0.0014988306 648 140
-0.11991497 -0.18843614 0.58198529 0.0015649089 618 133
-0.11759119 -0.1891554 0.58480495 0.0015458401 621 134
-0.11509386 -0.18962356 0.58683085 0.0015157139 633 136
-0.1125522 -0.1900401 0.58867872 0.001604162 614 132
-0.11077012 -0.19179308 0.59465212 0.0016049853 586 126
-0.1082728 -0.19236685 0.59695566 0.0015838858 596 128
-0.10391656 -0.1895801 0.58880514 0.0014405384 692 149
-0.10121147 -0.18973505 0.58976483 0.0014111305 756 163
-0.09857408 -0.19002926 0.59113967 0.00135682 771 166
-0.096107125 -0.19067879 0.59360361 0.0013539258 757 163
-0.093583643 -0.19125183 0.59581405 0.0013802975 743 160
-0.090805098 -0.191323 0.59644467 0.001433352 759 164
-0.088206373 -0.19178969 0.59829217 0.0013724986 748 161
-0.08587274 -0.1928826 0.60207915 0.0014433692 690 149
-0.083465628 -0.19387957 0.60555416 0.0014414635 693 149
-0.080403946 -0.19337277 0.60431701 0.0015450637 681 147
-0.078504927 -0.19572757 0.61200988 0.0015365419 632 136
-0.077098601 -0.1995367 0.62424475 0.0016500406 556 120
-0.075142264 -0.20216742 0.6327877 0.0017269098 524 113
-0.071577854 -0.20051025 0.62789559 0.0017308397 547 118
-0.068001717 -0.19867639 0.62243038 0.0016903317 596 128
-0.064851619 -0.19797851 0.62050605 0.0016513556 619 133
-0.061736062 -0.19732542 0.61870641 0.0015648921 651 140
-0.058723703 -0.19695403 0.61777502 0.0015212338 625 135
-0.055912085 -0.19725229 0.6189307 0.001532879 625 135
-0.053017315 -0.19727381 0.61920524 0.0015554352 625 135
-0.050148025 -0.19739813 0.61979002 0.0015914382 640 138
-0.047731657 -0.19943005 0.62635374 0.0015553614 639 138
-0.045453764 -0.20234445 0.63568115 0.0015210622 638 137
-0.043093152 -0.20527317 0.64504611 0.0015382092 626 135
-0.040240642 -0.20612337 0.6478703 0.0016262172 587 126
-0.036858968 -0.20418079 0.64190388 0.0016106243 588 127
-0.033900261 -0.2044445 0.64286059 0.0016633914 594 128
-0.030890655 -0.20442265 0.6429081 0.0015741126 599 129
-0.027944081 -0.20485826 0.64438307 0.0015679054 605 130
-0.024962977 -0.20511538 0.64528573 0.001565473 609 131
-0.021952543 -0.20516904 0.64553756 0.0016289995 593 128
-0.019010862 -0.20598473 0.64817625 0.0015957766 592 127
-0.016000031 -0.20621838 0.64897299 0.0016172642 580 125
-0.01295561 -0.20602714 0.64842176 0.0016487789 584 126
-0.0099535519 -0.20659848 0.65025991 0.0016274756 567 122
-0.0068907216 -0.2058562 0.64795297 0.0016240532 579 125
-0.003843494 -0.20478216 0.64459097 0.0015747261 601 129
-0.00083035731 -0.20432435 0.64315802 0.0015829105 623 134
0.0021650698 -0.20346761 0.64045876 0.0014835778 667 144
0.0051618 -0.20365636 0.64104038 0.001605062 650 140
0.0081464853 -0.2034058 0.64022845 0.0015029856 665 143
0.011075865 -0.20227976 0.63665074 0.0015092039 693 149
0.0140308 -0.2019984 0.63572127 0.0014542441 703 151
0.0169825 -0.20177689 0.63496983 0.0014217541 701 151
0.019933224 -0.20161143 0.63438445 0.0015603015 682 147
0.022937976 -0.2019645 0.63541973 0.0017637934 566 122
0.025040796 -0.19520563 0.61407137 0.001743735 518 111
0.027558923 -0.19274151 0.60622686 0.0018599074 521 112
0.029810412 -0.18904604 0.59450203 0.0017138437 552 119
0.03190862 -0.18509187 0.58195728 0.0015668538 606 130
0.034676231 -0.1853371 0.58260787 0.0015923138 595 128
0.036773831 -0.18222642 0.57270038 0.0015951555 621 134
0.039615616 -0.18297552 0.5749144 0.0016328485 636 137
0.042411927 -0.18343267 0.57619911 0.0015287036 622 134
0.045202866 -0.1838133 0.57723159 0.0015208431 638 137
0.047953825 -0.18399756 0.57763529 0.0015298396 659 142
0.050786663 -0.18445957 0.57889867 0.0015068833 649 140
0.054152276 -0.18671161 0.58576494 0.001553383 648 140
0.057297129 -0.18802197 0.58966029 0.0017313478 588 127
0.061154034 -0.19144069 0.60014945 0.0016903009 562 121
0.064050779 -0.19168502 0.60066921 0.0017000756 580 125
0.067235976 -0.19273566 0.6037001 0.0015926835 587 126
0.070844717 -0.1948663 0.61009526 0.0016469758 554 119
0.073819965 -0.19515656 0.61071026 0.0015692982 602 130
0.076679528 -0.19513066 0.61032063 0.001495307 646 139
0.079849623 -0.19586836 0.61230266 0.0015607583 630 136
0.082839489 -0.196128 0.61277264 0.0015197773 632 136
0.085766569 -0.19622655 0.6127224 0.0014805419 658 142
0.088673957 -0.19627504 0.61249876 0.0014385449 692 149
0.091871038 -0.19694151 0.61418521 0.0014581608 670 144
0.094888777 -0.19719453 0.61456281 0.0016267907 622 134
0.098430164 -0.19848855 0.61816317 0.0015692391 599 129
0.10166861 -0.19911468 0.61966074 0.0017145708 578 124
0.10287739 -0.19584204 0.60901219 0.001573496 605 130
0.10545331 -0.19527927 0.60678047 0.0016246515 622 134
0.10876234 -0.19606794 0.60872775 0.0016349659 607 131
0.11220725 -0.19705451 0.61126477 0.0016855476 574 124
0.11558264 -0.1978724 0.61325288 0.00174964 511 110
0.11888167 -0.1985226 0.61469609 0.0018968657 504 108
0.12253018 -0.19971126 0.61777961 0.0018428883 527 113
0.12464955 -0.19841026 0.61314005 0.0018199504 550 118
0.12766331 -0.19855985 0.61296433 0.0016700003 545 117
0.13040969 -0.19829619 0.61149055 0.0018120708 568 122
0.13118067 -0.19510604 0.60098124 0.001682387 607 131
0.12979399 -0.188912 0.58122915 0.0014252103 703 151
0.13066797 -0.18619896 0.57219678 0.0013556011 754 162
0.13295005 -0.18556258 0.56953627 0.0013845472 769 166
0.13572742 -0.1856292 0.5690133 0.0013561716 782 168
0.13880783 -0.1860995 0.56970298 0.0013266524 786 169
0.14158106 -0.18614772 0.56907594 0.0013954769 754 162
0.14443202 -0.18629439 0.56872672 0.0014472603 707 152
0.14613317 -0.18498008 0.56390023 0.0013427428 771 166
0.14843963 -0.18446608 0.56149948 0.0012655521 849 183
0.15061538 -0.18381099 0.55865324 0.0012857176 898 194
0.15350676 -0.18403696 0.55846572 0.0012180866 900 194
0.15627475 -0.1841097 0.55779153 0.0012949052 870 188
0.15921627 -0.18438098 0.55769753 0.0012512245 853 184
0.16245303 -0.18497929 0.55856955 0.0012903044 841 181
0.164676 -0.1844226 0.5559361 0.001358898 795 171
0.16860363 -0.18576206 0.55899805 0.0013933798 735 158
0.17020541 -0.18453711 0.55432767 0.0014270972 729 157
0.17414156 -0.18584184 0.55724263 0.0014218239 696 150
0.17817658 -0.1872101 0.56032246 0.0015218523 630 136
0.18142484 -0.1877227 0.56082207 0.0015665804 609 131
0.18418865 -0.18772613 0.55979145 0.0017434951 574 124
0.18426855 -0.18503445 0.55073553 0.0015468869 619 133
0.18708624 -0.18513024 0.54999042 0.0014938975 652 140
0.18692422 -0.182317 0.5406214 0.0015441534 696 150
0.18936154 -0.18208276 0.53892338 0.0014174539 714 154
0.18962069 -0.17978978 0.53115654 0.0013970066 735 158
0.19342516 -0.1808752 0.53339177 0.0014227773 704 152
0.19712104 -0.18183096 0.53525299 0.0015757012 612 132
0.20255356 -0.18434164 0.54169726 0.0016553017 554 119
0.20326565 -0.18254678 0.53551424 0.0015770451 593 128
0.20545936 -0.1821119 0.53336525 0.0016128108 581 125
0.20825122 -0.18221161 0.53282189 0.0018136331 534 115
0.21306013 -0.18405122 0.53740084 0.0019705743 464 100
0.21902771 -0.18683299 0.54475957 0.0021817186 433 93
0.2171862 -0.18296713 0.53279227 0.0019581758 483 104
0.21740685 -0.18091193 0.52617633 0.0020991198 433 93
0.21861097 -0.17971483 0.52212715 0.0020992958 409 88
0.21281542 -0.17286082 0.50172931 0.0017254865 525 113
0.20983414 -0.16842756 0.48845163 0.001560137 608 131
0.21034399 -0.16686724 0.48358473 0.0016321236 634 137
0.21221897 -0.16641343 0.48199508 0.0016306489 600 129
0.21847297 -0.16936462 0.49033278 0.0018077336 526 113
0.22180827 -0.17001216 0.49206758 0.0019114381 473 102
0.22492182 -0.17047721 0.49334526 0.0019599567 430 92
0.22720098 -0.17030655 0.49285567 0.0021877773 414 89
0.22788034 -0.16895351 0.48901621 0.0020118342 410 88
0.22833391 -0.16746403 0.48485181 0.002007677 449 97
0.22576123 -0.16381055 0.47448635 0.0017862583 487 105
0.22562666 -0.16198458 0.46947479 0.0017738801 521 112
0.22627288 -0.16075143 0.46624193 0.0017111681 528 114
0.22663167 -0.15934175 0.46255544 0.001706548 524 113
0.22859657 -0.15907858 0.46225545 0.0018538311 489 105
0.23134999 -0.15936388 0.46361032 0.0019458022 458 98
0.23619771 -0.16107167 0.46917 0.0022773757 391 84
0.24008134 -0.16209462 0.47280368 0.0022027614 357 77
0.2406882 -0.16090685 0.4700447 0.0024429904 356 76
0.23848934 -0.15788475 0.46196243 0.0023640508 361 78
0.23809595 -0.15610467 0.45754278 0.0021972174 366 79
0.23728833 -0.15408956 0.45246372 0.0022115456 361 78
-0.38624361 -0.21881206 0.67183191 0.0071660113 82 17
-0.38372198 -0.21923715 0.67169487 0.006621365 90 19
-0.38216951 -0.22022797 0.67312825 0.0073213386 83 17
nan nan nan 0 86 18
-0.39384565 -0.23092851 0.70229149 0.006064978 105 22
-0.39165765 -0.23167291 0.70277494 0.0067459382 103 22
nan nan nan 0 102 22
nan nan nan 0 104 22
-0.37047681 -0.22510572 0.67788643 0.0073652091 92 19
-0.37064156 -0.22726668 0.68282634 0.017365547 39 8
-0.3675327 -0.22744176 0.6818431 0.019117026 33 7
-0.36322024 -0.22686836 0.67868161 0.020034166 26 5
-0.36466923 -0.22991662 0.68640524 0.02050587 34 7
-0.36366341 -0.23146038 0.68967927 0.0098267999 61 13
-0.36513618 -0.2346264 0.6978336 0.0096123517 71 15
-0.36606076 -0.23749809 0.70515692 0.0079540946 74 15
-0.35776472 -0.23438519 0.69479173 0.0063654613 93 20
-0.35177699 -0.23273797 0.6888755 0.0052023996 120 25
-0.34820193 -0.23267004 0.68772554 0.0051739225 120 25
-0.34426793 -0.23235852 0.68594372 0.0056702029 107 23
nan nan nan 0 77 16
nan nan nan 0 75 16
nan nan nan 0 87 18
-0.28563562 -0.20087926 0.59083003 0.0066844211 100 21
nan nan nan 0 65 14
-0.34727868 -0.24946776 0.73300707 0.01531123 48 10
nan nan nan 0 50 10
-0.326107 -0.23939204 0.70311463 0.0061692232 96 20
-0.32230586 -0.23922254 0.70263088 0.0046327831 138 29
-0.31802231 -0.23868713 0.70117706 0.0054860711 116 25
-0.31331599 -0.23781872 0.69884807 0.0066988906 113 24
nan nan nan 0 142 30
nan nan nan 0 103 22
nan nan nan 0 101 21
nan nan nan 0 111 23
nan nan nan 0 119 25
-0.30567491 -0.24893881 0.73506749 0.014307018 45 9
-0.3029972 -0.24979416 0.73850954 0.0081337066 73 15
nan nan nan 0 158 34
-0.2814562 -0.23788938 0.70527846 0.0040332153 174 37
-0.27639678 -0.23659752 0.70252275 0.0044146506 140 30
nan nan nan 0 117 25
nan nan nan 0 112 24
-0.24771605 -0.22049738 0.65801054 0.0055245641 111 23
-0.24340241 -0.21957462 0.65642619 0.010191299 57 12
-0.25860637 -0.23647392 0.70823693 0.0057902606 102 22
-0.25602713 -0.23735455 0.71219319 0.003327339 211 45
-0.25490573 -0.23963043 0.72037208 0.0038391792 212 45
-0.25070366 -0.23903379 0.7199381 0.0040065334 167 36
-0.24566206 -0.23760791 0.71700269 0.0059442781 119 25
nan nan nan 0 102 22
-0.23819016 -0.23722978 0.71857935 0.0038517271 181 39
-0.23415516 -0.2367298 0.71841437 0.0030021102 241 52
-0.2311956 -0.23731846 0.72154427 0.0043838304 189 40
nan nan nan 0 167 36
-0.22043873 -0.23342872 0.71232045 0.0047024828 138 29
nan nan nan 0 164 35
nan nan nan 0 147 31
nan nan nan 0 156 33
nan nan nan 0 109 23
nan nan nan 0 63 13
-0.19757049 -0.23112905 0.71254987 0.0045074187 141 30
-0.19589266 -0.23323838 0.72018379 0.0034858284 210 45
-0.19320497 -0.23419988 0.72426057 0.0035820508 188 40
nan nan nan 0 211 45
nan nan nan 0 198 42
nan nan nan 0 140 30
-0.17746121 -0.23189646 0.72124028 0.0045666895 140 30
-0.17351782 -0.23125339 0.72019124 0.0034663596 197 42
nan nan nan 0 194 41
nan nan nan 0 225 48
-0.13599762 -0.19275033 0.60251546 0.0023306264 335 72
-0.12752531 -0.18464819 0.57785726 0.0015104831 650 140
-0.12475266 -0.18462315 0.57842469 0.0014578763 681 147
-0.12222898 -0.18497375 0.58014816 0.0015109197 640 138
-0.11991557 -0.18566616 0.58292526 0.0015631299 607 131
-0.1176303 -0.18643586 0.58592856 0.0015798451 600 129
-0.11528338 -0.18714285 0.588718 0.0015753887 603 130
-0.11261743 -0.18735413 0.58993006 0.0017026522 580 125
-0.10970158 -0.18714987 0.58981323 0.0015989969 583 125
-0.10832299 -0.18962599 0.59813017 0.0017600488 548 118
-0.1055074 -0.18965192 0.59870523 0.0016558451 562 121
-0.10160831 -0.18767799 0.59294289 0.0015176106 635 137
-0.098694138 -0.18746296 0.5927133 0.0014255508 702 151
-0.096164159 -0.1879864 0.59480101 0.0014745782 720 155
-0.093506664 -0.1882845 0.59615958 0.0014598466 730 157
-0.090675674 -0.18824095 0.59641957 0.0013804195 739 159
