# .PCD v0.7 - Point Cloud Data file format
VERSION 0.7
FIELDS x y z noise intensity gray
SIZE 4 4 4 4 2 1
TYPE F F F F U U
COUNT 1 1 1 1 1 1
WIDTH 971
HEIGHT 1
VIEWPOINT 0 0 0 1 0 0 0
POINTS 971
DATA ascii
0.033301447 -0.1237678 0.52519566 0.0012759578 867 183
0.035725825 -0.12376018 0.52510542 0.0012332922 888 188
0.038875546 -0.12610644 0.53499621 0.0013388653 770 163
0.041507009 -0.12659149 0.53698403 0.0013537689 805 170
0.043629605 -0.12555738 0.5325222 0.0011579777 986 209
0.046054769 -0.12545796 0.53201938 0.0012045894 1006 213
0.048564345 -0.1255869 0.53247857 0.0012098823 969 205
0.051203981 -0.12602352 0.5342353 0.0012727276 832 176
0.054059293 -0.1269263 0.53796035 0.0014609888 749 158
0.056531135 -0.1268889 0.53769243 0.0013160739 793 168
0.059263386 -0.12741452 0.53980237 0.0013148302 796 168
0.061730683 -0.12735105 0.53940797 0.0013546401 762 161
0.064211152 -0.12731862 0.53913689 0.0014712369 736 156
0.067110941 -0.12808891 0.54225546 0.0014461739 689 146
0.068992078 -0.12692957 0.53719634 0.0015147408 689 146
0.070975117 -0.12603188 0.53323764 0.0013914672 729 154
0.072538048 -0.12447371 0.52647787 0.0013757198 749 158
0.074748382 -0.12409176 0.52468562 0.0014250891 765 162
0.07696072 -0.12373709 0.52299929 0.0013487693 773 163
0.080192097 -0.12499245 0.52810562 0.0014317924 744 157
0.083496995 -0.12628454 0.53335154 0.0013768671 743 157
0.087542489 -0.12859008 0.54285926 0.0014164537 713 151
0.09016753 -0.12873843 0.54324305 0.0013560413 758 160
0.093768924 -0.13023479 0.54929835 0.0014930136 728 154
0.097993672 -0.13249461 0.55855232 0.0014598346 675 143
0.10134924 -0.13349289 0.5624662 0.0013889481 724 153
0.10373977 -0.13320178 0.56093049 0.0013986331 781 165
0.10562448 -0.13229145 0.5567742 0.0013094617 870 184
0.1082303 -0.13230628 0.55649734 0.0012632663 910 193
0.11063495 -0.13208024 0.55519104 0.0012183253 933 197
0.1131009 -0.13193607 0.55421239 0.0012277531 890 188
0.11618493 -0.13250321 0.55620247 0.0012739116 838 177
0.11808405 -0.13172379 0.55252206 0.0012277848 891 189
0.11951015 -0.13046136 0.54680312 0.0012365261 944 200
0.12213473 -0.13053271 0.54665858 0.0011611755 980 207
0.12471334 -0.13055302 0.54628003 0.0011814388 943 200
0.12696511 -0.13023725 0.54447532 0.0011971217 923 195
0.12931274 -0.13003032 0.54310638 0.001209158 915 194
0.1318596 -0.13002786 0.54257041 0.0012263382 900 190
0.13456495 -0.13017882 0.54265165 0.0012362127 888 188
0.13740441 -0.13045149 0.54321522 0.001328183 860 182
0.13999014 -0.13047768 0.54272771 0.0013766177 797 169
0.14215855 -0.13012098 0.54062486 0.0013188474 794 168
0.14387602 -0.12937135 0.53687036 0.0013090632 807 171
0.14649698 -0.12944601 0.536515 0.0013070939 802 170
0.14795884 -0.12851141 0.53195548 0.0012602387 845 179
0.15040728 -0.12845065 0.53099298 0.0013439817 856 181
0.15363875 -0.12904963 0.53272855 0.0013786732 777 164
0.15739582 -0.13006352 0.53614104 0.0014239707 703 149
0.15615536 -0.12698118 0.52265429 0.0013637989 806 170
0.15611731 -0.12495805 0.5135327 0.0011724546 964 204
0.15812312 -0.12460808 0.51127607 0.0011205029 1042 221
0.1607556 -0.12475508 0.51103383 0.0011186979 1032 218
0.1632227 -0.12477127 0.51022875 0.001120065 1044 221
0.16702607 -0.12579337 0.51350385 0.0011651848 1002 212
0.17078714 -0.12675431 0.51648933 0.0012989359 887 188
0.17469072 -0.12779196 0.51974708 0.0013165926 792 168
0.1727093 -0.12455605 0.50561637 0.0013109072 866 183
0.17187929 -0.12222921 0.49519637 0.0011829406 944 200
0.17140067 -0.12021279 0.48604748 0.0010738706 1117 236
0.17428234 -0.12057585 0.48651296 0.0010471925 1176 249
0.17725939 -0.12099431 0.4871771 0.0010281898 1196 253
0.17925583 -0.12074121 0.48511934 0.0010646854 1134 240
0.18252093 -0.12133811 0.4864597 0.0011431352 1072 227
0.18518354 -0.12152427 0.48613504 0.0011956657 1020 216
0.18740307 -0.12141863 0.48463386 0.0011327018 1016 215
0.19117051 -0.12230593 0.48708385 0.0011674461 996 211
0.19356462 -0.12230353 0.48598135 0.0011895156 940 199
0.1950188 -0.12171456 0.48255634 0.0011902832 938 198
0.19634505 -0.12106094 0.47889355 0.0011791182 958 203
0.19804367 -0.12064981 0.47621185 0.0012587345 931 197
0.19909506 -0.11985872 0.47205868 0.0012203839 909 192
0.20098943 -0.11958766 0.46998605 0.0013112662 862 182
0.2026509 -0.11918588 0.46743405 0.0013362071 828 175
0.20672022 -0.12019324 0.47043881 0.0014040387 729 154
0.20893455 -0.12011151 0.46921474 0.0014633164 676 143
0.20932537 -0.118995 0.46400404 0.0013724051 745 158
0.20991869 -0.11801694 0.45940036 0.0013632474 811 172
0.2123577 -0.11808657 0.45893872 0.00137354 785 166
0.21407062 -0.11775527 0.4569833 0.001452802 736 156
0.22095129 -0.12024336 0.4660261 0.0015781122 595 126
0.22310275 -0.12013245 0.46505687 0.0016779335 545 115
0.2196191 -0.11702123 0.45256224 0.001517985 633 134
0.21941891 -0.1157058 0.4471066 0.0015732844 639 135
0.22099486 -0.11534435 0.44542161 0.0015131708 642 136
0.22164881 -0.11451384 0.44200829 0.0015107419 638 135
0.22357696 -0.1143517 0.44125739 0.0016772697 608 128
0.22807638 -0.11549487 0.44562441 0.0019226713 499 105
0.23415814 -0.11740892 0.45304808 0.0023155608 392 83
0.23538166 -0.11687347 0.45110235 0.0020766987 412 87
0.2332103 -0.11467896 0.44282982 0.0019890703 420 89
0.2332537 -0.11360502 0.43895617 0.0019795925 424 89
-0.41331941 -0.17474397 0.70393795 0.020936228 29 6
-0.4074614 -0.17373621 0.69819391 0.01412703 40 8
nan nan nan 0 56 11
-0.37557834 -0.16292009 0.65177518 0.0058344523 105 22
nan nan nan 0 130 27
nan nan nan 0 115 24
-0.39302197 -0.17504223 0.69613004 0.0069225524 87 18
-0.39106187 -0.17573446 0.69767809 0.0081736892 71 15
nan nan nan 0 60 12
nan nan nan 0 31 6
-0.40189439 -0.18560627 0.73368561 0.028781991 24 5
nan nan nan 0 27 5
nan nan nan 0 69 14
nan nan nan 0 95 20
nan nan nan 0 124 26
nan nan nan 0 56 11
nan nan nan 0 81 17
nan nan nan 0 85 18
-0.36077198 -0.17990722 0.70809799 0.012451184 61 12
nan nan nan 0 62 13
nan nan nan 0 47 9
-0.36614138 -0.1882157 0.74182397 0.017289408 35 7
-0.35701203 -0.18542896 0.73144227 0.0076426212 78 16
nan nan nan 0 95 20
nan nan nan 0 126 26
nan nan nan 0 79 16
nan nan nan 0 111 23
nan nan nan 0 133 28
nan nan nan 0 107 22
nan nan nan 0 109 23
nan nan nan 0 79 16
nan nan nan 0 73 15
-0.31359488 -0.18175715 0.72865349 0.011601611 65 13
-0.31129494 -0.1825399 0.73336899 0.0054878774 119 25
-0.30151737 -0.17890435 0.7203446 0.0043041641 146 30
-0.30091456 -0.18069071 0.72916228 0.0042225206 156 33
-0.29936114 -0.18194275 0.73587018 0.0041140881 166 35
-0.29737583 -0.18295984 0.7416603 0.0031415301 257 54
-0.28095648 -0.17501114 0.71104664 0.0018592649 541 114
-0.28021529 -0.17675124 0.71973801 0.002028475 423 89
-0.28063625 -0.17927821 0.73166478 0.0042233006 156 33
nan nan nan 0 123 26
nan nan nan 0 109 23
-0.26570189 -0.1765023 0.72507524 0.0051554823 140 29
-0.26192221 -0.17633401 0.72591716 0.0061210846 129 27
-0.25847521 -0.17638813 0.72764605 0.0043606008 159 33
nan nan nan 0 139 29
nan nan nan 0 117 24
nan nan nan 0 71 15
-0.25377288 -0.18317848 0.76158071 0.0040740645 160 33
-0.25043699 -0.1834182 0.76396877 0.00363145 195 41
nan nan nan 0 173 36
nan nan nan 0 133 28
nan nan nan 0 106 22
nan nan nan 0 49 10
nan nan nan 0 61 12
nan nan nan 0 119 25
nan nan nan 0 171 36
nan nan nan 0 141 29
nan nan nan 0 135 28
-0.20445515 -0.1754365 0.74197131 0.0057615498 128 27
nan nan nan 0 167 35
nan nan nan 0 109 23
nan nan nan 0 137 29
nan nan nan 0 252 53
-0.19284855 -0.18100734 0.76993793 0.0083189933 82 17
-0.1879037 -0.17973983 0.7653203 0.0058193067 105 22
-0.18396765 -0.17940669 0.76464218 0.0039059077 172 36
-0.1799591 -0.17898817 0.76356643 0.0041179312 162 34
nan nan nan 0 152 32
-0.15489063 -0.16043715 0.68561596 0.0034892932 216 45
-0.15346073 -0.16231832 0.69421732 0.005115978 128 27
-0.15035315 -0.16246793 0.69539481 0.0080597932 77 16
-0.14946839 -0.16507913 0.70709282 0.0071401647 87 18
-0.14755282 -0.16664408 0.71429831 0.003687718 192 40
nan nan nan 0 288 61
-0.11028304 -0.13044442 0.55986518 0.0017600846 505 107
-0.10570289 -0.12805596 0.54994774 0.0012584568 856 181
-0.10296448 -0.12783551 0.54931784 0.0012231017 897 190
-0.10107294 -0.12868203 0.55325878 0.001306095 807 171
-0.098830454 -0.12911434 0.55540627 0.0013362796 784 166
-0.095660374 -0.12832546 0.55228549 0.0013126098 794 168
-0.093148246 -0.12840009 0.55286521 0.0013432363 769 163
-0.090149045 -0.12778847 0.55047566 0.0013141122 801 169
-0.087710179 -0.12795864 0.55143994 0.0014179315 757 160
-0.085127324 -0.12792265 0.55150336 0.0013863794 729 154
-0.082147695 -0.12726974 0.54889405 0.0013440631 767 162
-0.079170011 -0.12657817 0.54610437 0.0014008917 797 169
-0.077441081 -0.12790339 0.55200577 0.0014006685 788 167
-0.075159736 -0.12837557 0.55421752 0.0013038719 800 169
-0.072383933 -0.12800677 0.55278862 0.0012566887 848 179
-0.069502883 -0.12741798 0.55039865 0.00127926 835 177
-0.066255428 -0.12608707 0.54479164 0.0012887361 903 191
-0.063700423 -0.12602074 0.54463828 0.0011597539 971 205
-0.061213698 -0.1260896 0.54506063 0.0011958422 922 195
-0.058768343 -0.12625328 0.54588509 0.0012455877 869 184
-0.056269467 -0.12631147 0.54624605 0.0012856175 831 176
-0.053828917 -0.12651224 0.54721636 0.0014307962 767 162
-0.051438462 -0.12685637 0.54880017 0.0013727699 742 157
-0.048813194 -0.12662703 0.5478965 0.0013415125 764 162
-0.046332099 -0.12676707 0.54858476 0.0013188256 799 169
-0.04375089 -0.12663358 0.54808301 0.001294764 817 173
-0.041216455 -0.12662737 0.54812628 0.0012546097 867 183
-0.038631629 -0.12645537 0.54744637 0.001231874 889 188
-0.036035568 -0.12621996 0.54648632 0.0012133769 906 192
-0.033524849 -0.12627053 0.54675949 0.0012120283 905 191
-0.031003317 -0.12628527 0.54687262 0.0012138762 904 191
-0.028482307 -0.12630494 0.54700238 0.0012453935 880 186
-0.025978928 -0.12641425 0.54751611 0.0013019235 812 172
-0.023285011 -0.12551999 0.54367858 0.0013461835 763 161
-0.020483304 -0.12375839 0.53607959 0.0012803909 826 175
-0.017940881 -0.12329445 0.53409719 0.0012744919 903 191
-0.015385471 -0.12257922 0.53102219 0.0012088761 915 194
-0.012991672 -0.1231245 0.53340411 0.0012287962 897 190
-0.010570294 -0.12360226 0.53549021 0.0013323425 878 186
-0.0081370641 -0.12419084 0.53805298 0.0012476757 872 184
-0.0056384718 -0.12386068 0.53663188 0.001322379 876 185
-0.0031598895 -0.12379715 0.53636259 0.0012053528 920 195
-0.00068432884 -0.12382057 0.53646672 0.001210461 910 193
0.0017906572 -0.12373956 0.53611499 0.0012500935 864 183
0.0042360323 -0.1228935 0.53244525 0.0013230032 871 184
0.0066645853 -0.12235984 0.53012574 0.0012755016 893 189
0.0090853395 -0.1220081 0.5285911 0.0012083361 933 197
0.011460018 -0.12131752 0.52558517 0.0011703947 978 207
0.013858228 -0.12107383 0.52451193 0.0011419951 1008 213
0.016258206 -0.12091579 0.52380621 0.0011460884 1000 212
0.018713579 -0.12115731 0.52482784 0.0011731568 962 204
0.021225832 -0.12166951 0.52701807 0.0011954948 933 197
0.023694094 -0.12185011 0.5277679 0.0012329663 921 195
0.026070375 -0.12156813 0.52651012 0.0012190093 981 208
0.028511509 -0.12161086 0.5266546 0.0012846335 909 192
0.030752523 -0.12086039 0.52335984 0.001298987 875 185
0.033223424 -0.12105694 0.52416164 0.0012378284 879 186
0.03573478 -0.12136415 0.52543771 0.0012487352 874 185
0.038953211 -0.12388103 0.5362739 0.0013299363 785 166
0.041356787 -0.12366038 0.53525329 0.0012843383 823 174
0.04368715 -0.12325808 0.53344107 0.001173562 972 206
0.046143826 -0.12323608 0.53326935 0.0011785325 952 201
0.048639413 -0.12331497 0.53352803 0.0012386132 868 184
0.051819403 -0.12503769 0.54089099 0.001376571 736 156
0.054276414 -0.12493758 0.54036105 0.0014583495 751 159
0.056809463 -0.12501362 0.54058576 0.0013823519 783 166
0.059422862 -0.1252526 0.54150754 0.0013670189 752 159
0.06195968 -0.12531736 0.54166794 0.0014852236 706 149
0.064623542 -0.12562408 0.54286557 0.0015079211 700 148
0.066573769 -0.12457246 0.53818578 0.0015136913 713 151
0.067462586 -0.12168226 0.52555841 0.0014330521 757 160
0.069877833 -0.12165066 0.52527195 0.0013512339 769 163
0.072232664 -0.12151954 0.5245465 0.0014007228 786 166
0.074553981 -0.12134241 0.52361315 0.0013380451 773 163
0.076906331 -0.12122538 0.52292919 0.0013403863 776 164
0.079609983 -0.12165231 0.52458054 0.0013320999 778 165
0.082268745 -0.12198739 0.52582335 0.0014362561 780 165
0.087500073 -0.12600785 0.54293263 0.0014653835 689 146
0.090168737 -0.12621611 0.54359621 0.0013932285 741 157
0.092809916 -0.12637556 0.54403591 0.0014476662 737 156
0.096974187 -0.12854554 0.55311233 0.0014584298 723 153
0.10038599 -0.12963176 0.55750424 0.0013297602 775 164
0.10311136 -0.12979917 0.55792683 0.0012918664 818 173
0.10552552 -0.12957625 0.55665624 0.0013534365 823 174
0.1081923 -0.12966675 0.55671632 0.0012803259 859 182
0.11079041 -0.12967265 0.55639607 0.0013042276 862 182
0.11295386 -0.12918116 0.55392581 0.0013510599 838 177
0.11508824 -0.12867917 0.55139542 0.0012456895 874 185
0.11670595 -0.12763408 0.54652429 0.0012016252 954 202
0.11905725 -0.12741883 0.54519153 0.0011392137 1008 213
0.12102629 -0.12681207 0.54216707 0.0011528656 1030 218
0.12339978 -0.12664531 0.54100651 0.0011912945 1011 214
0.12652746 -0.1272437 0.54309261 0.0011526173 983 208
0.1290957 -0.127267 0.54270071 0.0012132035 938 198
0.13144973 -0.1270823 0.54140073 0.0012114776 925 196
0.13395216 -0.12704535 0.5407089 0.0012129387 910 193
0.13687275 -0.12739901 0.54165524 0.0012585925 872 184
0.13854821 -0.12660195 0.53768796 0.0012676773 852 180
0.14050217 -0.12608343 0.53488576 0.0012924825 835 177
0.14309362 -0.12614518 0.53452325 0.001357795 815 172
0.14527324 -0.12584801 0.5326162 0.0012734988 841 178
0.1476189 -0.12570237 0.53132766 0.0012983672 848 179
0.15032054 -0.12585965 0.53129363 0.0013423208 810 171
0.15410089 -0.12690005 0.53495473 0.0013955199 737 156
0.15658273 -0.12685478 0.53400677 0.0013823522 744 157
0.15403959 -0.12280485 0.51619911 0.0012443783 876 185
0.15539065 -0.12193792 0.5117752 0.0011418496 1011 214
0.15784399 -0.12194938 0.51101708 0.0011157731 1041 220
0.1603215 -0.12197888 0.51030791 0.0011066247 1054 223
0.16301239 -0.12216738 0.5102362 0.0011440763 1046 221
0.16555405 -0.12224017 0.50965309 0.0011571066 983 208
0.17147596 -0.1247704 0.51927024 0.00130149 839 177
0.17416905 -0.12491236 0.518902 0.0013386823 772 163
0.17260975 -0.12204364 0.50602305 0.0012726551 842 178
0.17127486 -0.11941138 0.49414441 0.0011800132 1017 215
0.17138852 -0.11784756 0.48669884 0.0010830169 1165 247
0.17353995 -0.11770831 0.48512968 0.0010201933 1210 255
0.17647685 -0.11809844 0.48572063 0.0010452877 1205 255
0.17939174 -0.11846372 0.48618522 0.0010984908 1076 228
0.18205723 -0.11865694 0.4859229 0.0011132974 1039 220
0.1844043 -0.11864033 0.48478654 0.0011501419 1039 220
0.18652061 -0.11847755 0.48304406 0.0011439321 1030 218
0.18872057 -0.11837133 0.48152736 0.0011623974 999 211
0.19292833 -0.1195115 0.4850679 0.0011631793 975 206
0.19351442 -0.11840773 0.47950104 0.0011799323 1016 215
0.19591135 -0.11842528 0.47848967 0.0012112216 971 205
0.19819738 -0.11837617 0.47721913 0.0012153623 939 199
0.19887237 -0.11737733 0.47214413 0.001271617 919 194
0.19984518 -0.11657555 0.46789801 0.0012077381 917 194
0.20100617 -0.11590078 0.46420041 0.0012492572 890 188
0.20449339 -0.11656738 0.4659071 0.0014161577 774 164
0.20898122 -0.11778292 0.46983063 0.0014790369 667 141
0.2108335 -0.11750252 0.46782389 0.0014670253 670 142
0.21022727 -0.1158732 0.46051058 0.0014527568 756 160
0.21082772 -0.11493728 0.45602652 0.0013369319 780 165
0.21362346 -0.11520543 0.45638481 0.0013721181 756 160
0.21635538 -0.1154338 0.45664823 0.0014671829 672 142
0.21980649 -0.11603702 0.45846075 0.001606831 577 122
0.22057337 -0.1152254 0.4547585 0.0015965957 588 124
0.22025248 -0.11386823 0.44898906 0.0015549216 645 136
0.22062947 -0.11289594 0.44482434 0.0014930067 664 140
0.22231585 -0.11260656 0.44343448 0.0015222873 637 135
0.22387557 -0.11225946 0.44190022 0.001723168 594 126
0.22780956 -0.113098 0.445115 0.0017729235 503 106
0.2349589 -0.11550064 0.45456773 0.0023273118 385 81
0.23465662 -0.11422912 0.44964346 0.0022277581 387 82
0.23392273 -0.11277404 0.44407597 0.0020826978 427 90
0.23007216 -0.10985853 0.43282914 0.0020226219 451 95
-0.37099186 -0.153712 0.63120311 0.011540488 61 12
nan nan nan 0 95 20
nan nan nan 0 88 18
-0.37395066 -0.15897009 0.64835662 0.0065759416 92 19
-0.35019931 -0.15017591 0.61123276 0.0041798819 171 36
nan nan nan 0 179 37
nan nan nan 0 124 26
nan nan nan 0 64 13
-0.40791082 -0.18126927 0.73268116 0.0154168 46 9
-0.4114539 -0.18451697 0.74477631 0.019036116 32 6
-0.40296829 -0.18238059 0.73524731 0.021502627 26 5
-0.39375284 -0.17987096 0.72435385 0.023608413 25 5
-0.38515061 -0.17759687 0.71454901 0.013928306 45 9
nan nan nan 0 73 15
nan nan nan 0 87 18
nan nan nan 0 55 11
nan nan nan 0 62 13
-0.35931259 -0.17386243 0.69822186 0.0068074008 87 18
-0.36060652 -0.1762286 0.70785373 0.0080446694 76 16
nan nan nan 0 118 25
nan nan nan 0 133 28
-0.36734504 -0.18505816 0.74455899 0.012243548 47 9
-0.35959101 -0.18303347 0.73708892 0.0115658 59 12
nan nan nan 0 91 19
nan nan nan 0 96 20
nan nan nan 0 113 23
-0.32612509 -0.1731949 0.70117599 0.0089293029 69 14
nan nan nan 0 88 18
-0.31668219 -0.17190598 0.6983884 0.0069678011 87 18
nan nan nan 0 153 32
nan nan nan 0 115 24
nan nan nan 0 69 14
-0.30662888 -0.17416568 0.71334708 0.010114959 61 12
-0.30496305 -0.17525077 0.71936899 0.010753785 52 11
-0.3054449 -0.17761044 0.73068583 0.010728829 57 12
-0.30000627 -0.17654276 0.72793746 0.0099779591 62 13
nan nan nan 0 64 13
-0.29083118 -0.17535497 0.72634292 0.0087207016 85 18
-0.28414565 -0.17345813 0.72012377 0.0038187215 202 42
-0.27475426 -0.16984081 0.70670456 0.0020284217 436 92
-0.2816326 -0.1763168 0.73529899 0.0036462313 186 39
nan nan nan 0 143 30
nan nan nan 0 126 26
nan nan nan 0 164 34
nan nan nan 0 188 39
-0.25816548 -0.1726536 0.72777802 0.0062810718 114 24
nan nan nan 0 161 34
nan nan nan 0 81 17
-0.2642158 -0.18424295 0.7812137 0.01436606 54 11
nan nan nan 0 119 25
-0.2523073 -0.18109263 0.77067149 0.0033369411 213 45
-0.24639371 -0.17947687 0.76513171 0.0043031243 174 36
-0.23837887 -0.17625865 0.75268549 0.0042772978 156 33
-0.23850706 -0.17905508 0.76588106 0.0063975635 114 24
-0.23761256 -0.18115881 0.77610731 0.0066086301 94 19
-0.23921549 -0.1852632 0.79490566 0.0049841176 130 27
-0.23631065 -0.18595223 0.7990402 0.0040574754 171 36
-0.21962732 -0.17564459 0.7558223 0.0043819421 181 38
-0.21365711 -0.17370476 0.74849951 0.0047654677 137 29
nan nan nan 0 141 29
nan nan nan 0 111 23
-0.18726207 -0.16021965 0.69302404 0.0042188819 154 32
nan nan nan 0 117 24
nan nan nan 0 142 30
nan nan nan 0 156 33
-0.18011293 -0.16567299 0.71977478 0.012719076 56 11
-0.17602865 -0.16501346 0.71761888 0.011497179 60 12
-0.18470603 -0.17652461 0.76840597 0.005636713 111 23
-0.18118314 -0.17660189 0.76943874 0.00459061 146 30
-0.17493166 -0.17396872 0.75862235 0.0044603203 145 30
-0.16778237 -0.1703151 0.74330413 0.0041117994 160 33
-0.1664089 -0.17249393 0.75340742 0.0069317515 101 21
nan nan nan 0 92 19
-0.15151538 -0.16399346 0.71733338 0.005533949 115 24
-0.14596198 -0.16155082 0.70713204 0.0034750262 202 42
nan nan nan 0 360 76
-0.10922486 -0.12660919 0.55489123 0.0014649044 672 142
-0.10633249 -0.12624259 0.55360997 0.001318136 796 168
-0.10379291 -0.12628704 0.55411434 0.0013137675 798 169
-0.10135085 -0.12645544 0.55514741 0.0014130546 779 165
-0.098057099 -0.12554221 0.55141544 0.0013173957 805 170
-0.095247686 -0.12521669 0.55024773 0.001280629 833 176
-0.092719972 -0.12525378 0.55065906 0.001321945 795 168
-0.090109318 -0.12517779 0.55055982 0.0013260983 789 167
-0.087518498 -0.12512569 0.55055261 0.0013461383 780 165
-0.085048378 -0.12524821 0.55130148 0.0013867387 771 163
-0.082454532 -0.12519048 0.55124545 0.0013101359 794 168
-0.078934446 -0.12367778 0.54476899 0.0013228403 815 172
-0.076389797 -0.12364399 0.54479384 0.0012632007 859 182
-0.074594349 -0.12486195 0.55032539 0.0013234731 814 172
-0.072081409 -0.12492262 0.55074793 0.0013402102 840 178
-0.069427811 -0.12473501 0.55006635 0.001339024 836 177
-0.066417351 -0.12386757 0.54637653 0.0012464189 866 183
-0.063752621 -0.12360179 0.54533076 0.0011970398 924 196
-0.061198343 -0.1235371 0.54516375 0.0012538771 949 201
-0.058708817 -0.12360314 0.5455659 0.0012529966 923 195
-0.056230888 -0.12370065 0.54609948 0.0012770502 877 186
-0.053749435 -0.1237992 0.54663092 0.0013188368 844 179
-0.051320739 -0.12403496 0.54776168 0.0013457561 840 178
-0.048772041 -0.12399015 0.54764694 0.0012814301 827 175
-0.046197318 -0.12387062 0.54719603 0.0013054947 862 182
-0.043815296 -0.12428386 0.54909289 0.0012500256 882 187
-0.041260336 -0.12422719 0.54890847 0.0012248473 895 189
-0.03864596 -0.12397251 0.54784352 0.0012243672 892 189
-0.036127038 -0.1240098 0.5480637 0.001256177 853 180
-0.033565845 -0.1238967 0.54761434 0.0012986995 890 188
-0.030968992 -0.12362282 0.54644966 0.001206625 911 193
-0.028523965 -0.12396015 0.54798234 0.0012244941 888 188
-0.025980007 -0.12389136 0.54771566 0.0013097292 797 169
-0.023321208 -0.12320107 0.54469705 0.0013566841 760 161
-0.020469675 -0.12120279 0.53589118 0.0013014805 825 175
-0.017896563 -0.12053036 0.53294313 0.001251058 870 184
-0.015387643 -0.12014485 0.53126013 0.0012224782 900 190
-0.013007511 -0.12080936 0.5342167 0.001266223 898 190
-0.010571339 -0.12114248 0.53570467 0.00124178 883 187
-0.0081022233 -0.12118617 0.53590971 0.0013050393 881 186
-0.0056430348 -0.12148196 0.5372265 0.0012872103 836 177
-0.0031613603 -0.12137794 0.53677189 0.0013397993 862 182
-0.00068466261 -0.12140357 0.53688776 0.0012530886 893 189
0.0017955985 -0.12159967 0.53775418 0.0012596261 866 183
0.0042809504 -0.12171296 0.5382514 0.0013514236 807 171
0.0066885292 -0.12034372 0.53218943 0.0013513715 847 179
0.0091078142 -0.11986399 0.53005797 0.0012299026 886 187
0.011476517 -0.1190626 0.52650106 0.0011745502 960 203
0.01386177 -0.11868294 0.52480608 0.0011612562 974 206
0.016275663 -0.11862498 0.52453035 0.0011838486 966 204
0.018741548 -0.11891188 0.52577615 0.0011875978 947 200
0.021210819 -0.11915202 0.52681154 0.0012936712 903 191
0.02370486 -0.11946763 0.52817684 0.0012264574 889 188
0.026108675 -0.11931204 0.52745509 0.0012585963 887 188
0.028373772 -0.11860316 0.52428377 0.0012309899 890 188
0.03074521 -0.11841528 0.52341163 0.0012409186 877 186
0.033239525 -0.11869355 0.52459568 0.0012411218 879 186
0.03614603 -0.12030591 0.53167081 0.0012850624 819 173
0.038960423 -0.12142614 0.53656507 0.001348094 759 161
0.041404214 -0.12132641 0.53606296 0.001267932 868 184
0.043817285 -0.12115298 0.5352301 0.0011831728 948 201
0.046318334 -0.12122836 0.53549093 0.0012483054 883 187
0.049315572 -0.1225289 0.54115683 0.0013226307 788 167
0.051846936 -0.12260229 0.5413959 0.0013921999 756 160
0.054555833 -0.12306942 0.54336667 0.0013617194 747 158
0.057051908 -0.12303645 0.54312229 0.0014104825 732 155
0.059520599 -0.1229497 0.5426333 0.0015213578 704 149
0.062001962 -0.12289509 0.54227895 0.0014703436 717 152
0.064035341 -0.12199128 0.5381704 0.0013791289 741 157
0.064993873 -0.1191841 0.52566057 0.0013677661 791 167
0.067290045 -0.11894387 0.52446705 0.0012947564 825 175
0.068750739 -0.11729497 0.51705581 0.0013012743 832 176
0.071426176 -0.11775974 0.51895416 0.0013191976 804 170
0.074323073 -0.11854754 0.5222649 0.0014414109 768 162
0.077228956 -0.11929952 0.52540565 0.0013970538 733 155
0.079800569 -0.11950494 0.52612734 0.0014642638 755 160
0.082155392 -0.11938318 0.52539754 0.0013186019 794 168
0.087276958 -0.12317309 0.54186487 0.0014186462 704 149
0.090216592 -0.12375769 0.54421157 0.0014395592 685 145
0.092880338 -0.1239423 0.54478508 0.0013918414 734 155
0.096937366 -0.12592708 0.55325329 0.0014015445 723 153
0.10027876 -0.1269037 0.55727196 0.0014285964 738 156
0.10202152 -0.12585898 0.55239987 0.0012380882 879 186
0.10497116 -0.12631789 0.55411321 0.0012638468 849 180
0.10822677 -0.12711418 0.55728757 0.0013096436 848 179
0.11069956 -0.12697525 0.55634362 0.0012756498 841 178
0.11251229 -0.12610291 0.55217189 0.0012615947 850 180
0.11497503 -0.12598181 0.55127496 0.0012035052 924 196
0.11647592 -0.12483513 0.54587585 0.0011572384 1000 212
0.11877738 -0.12457719 0.54434866 0.0011287322 1022 216
0.12126038 -0.12451647 0.54366529 0.0012062337 1001 212
0.12361819 -0.12433235 0.5424242 0.0012301222 935 198
0.12647162 -0.12464408 0.5433256 0.0012256715 955 202
0.12907207 -0.1246991 0.54308558 0.00118584 947 200
0.13168992 -0.12476849 0.5428862 0.0012296062 885 187
0.13370994 -0.12427958 0.54023713 0.0012418079 869 184
0.13598998 -0.12404604 0.53867859 0.0012284007 893 189
0.1368757 -0.12257244 0.53171945 0.001223203 897 190
0.13998248 -0.12310499 0.53344375 0.0012295072 886 187
0.14240445 -0.12302715 0.53249675 0.0012480943 870 184
0.14463744 -0.12279154 0.53084397 0.0012741076 872 184
0.1475213 -0.12310715 0.53154844 0.0012680885 867 183
0.15046285 -0.12345948 0.53238225 0.0013377641 772 163
0.15390992 -0.12420819 0.53489274 0.0014605058 706 149
0.15404257 -0.1223012 0.52594721 0.0012746252 850 180
0.15316413 -0.11966503 0.51386696 0.0012106306 930 197
0.15493493 -0.11914895 0.51088423 0.0011427429 1005 213
0.15705702 -0.1189148 0.50908881 0.0011016793 1069 226
0.15978813 -0.11914185 0.5092414 0.0010951513 1075 228
0.16246274 -0.11932062 0.50915807 0.0011285093 1032 218
0.16532353 -0.11962882 0.50959706 0.0012215547 944 200
0.17175758 -0.12247607 0.52080166 0.0013375565 772 163
0.17335792 -0.12184427 0.51716936 0.0013417576 770 163
0.17120071 -0.11862668 0.50256604 0.0013073712 880 186
0.17031008 -0.11636422 0.49202868 0.0011493678 1064 225
0.17113258 -0.11531838 0.48663962 0.0010366789 1182 250
0.17273054 -0.11481636 0.4835366 0.0010106078 1228 255
0.17576094 -0.11526721 0.48442629 0.0010300976 1188 252
0.17882071 -0.11572515 0.48531884 0.0010761169 1111 235
0.18097064 -0.11559001 0.48370409 0.0010884852 1090 231
0.18297026 -0.11536361 0.48169595 0.0010999388 1078 228
0.18560691 -0.11553948 0.48135573 0.0011599619 1049 222
0.18831237 -0.11575323 0.48116052 0.0011860083 1025 217
0.19085063 -0.1158602 0.48051271 0.0012073617 995 211
0.19282122 -0.11562417 0.47844163 0.0011328211 1020 216
0.1954149 -0.11576293 0.47792473 0.0011833026 991 210
0.19815488 -0.11598402 0.47775146 0.0011883492 944 200
0.19712636 -0.11402012 0.46860614 0.0011649715 979 207
0.19867869 -0.11357746 0.46575236 0.0012144413 973 206
0.20072927 -0.11342652 0.46412328 0.0012813585 928 196
0.20300464 -0.11340462 0.46305233 0.0013590176 829 175
0.20747955 -0.11459808 0.46696904 0.0014463363 693 147
0.20880385 -0.11404417 0.46380135 0.0014798283 666 141
0.20906051 -0.11292574 0.45839801 0.0013834129 739 156
0.20857416 -0.11143476 0.4515543 0.0013382254 817 173
0.21064149 -0.11132556 0.45037889 0.0013190972 792 168
0.21511252 -0.11247551 0.45435432 0.0014452537 732 155
0.2196067 -0.11361315 0.45833537 0.0015924026 599 127
0.22156869 -0.11343069 0.4570592 0.0016900878 555 117
0.21907626 -0.11099517 0.44679248 0.0015395429 629 133
0.2210703 -0.11085931 0.44587144 0.0014647805 668 141
0.22266953 -0.11053022 0.44425544 0.0015968771 624 132
0.22526364 -0.11069663 0.44471362 0.0016504021 553 117
0.22762305 -0.11074554 0.44478256 0.0019318801 513 108
0.23499151 -0.11320658 0.45462185 0.0023297272 398 84
0.23672067 -0.11292945 0.45354918 0.0020782806 405 85
0.22863415 -0.10802016 0.43395144 0.0018127388 485 102
0.2287388 -0.10703764 0.43020108 0.0018960038 496 105
-0.35466996 -0.14395075 0.60283703 0.0052903062 117 24
nan nan nan 0 168 35
nan nan nan 0 147 31
nan nan nan 0 77 16
nan nan nan 0 127 26
nan nan nan 0 141 29
nan nan nan 0 138 29
nan nan nan 0 49 10
-0.40741494 -0.17735443 0.73133039 0.018243153 40 8
-0.41135332 -0.18070753 0.74417222 0.022945447 32 6
-0.40718502 -0.18052842 0.74256909 0.019224975 30 6
-0.39672655 -0.17753123 0.72950995 0.026524317 24 5
-0.38743421 -0.17500432 0.71852905 0.017343605 34 7
nan nan nan 0 62 13
nan nan nan 0 76 16
-0.37160027 -0.17272791 0.70817471 0.010849406 51 10
nan nan nan 0 99 21
nan nan nan 0 121 25
nan nan nan 0 62 13
nan nan nan 0 75 15
nan nan nan 0 123 26
nan nan nan 0 74 15
nan nan nan 0 52 11
-0.35030234 -0.17650028 0.72682679 0.0080687543 79 16
-0.34330514 -0.17480947 0.72083008 0.0051450459 120 25
-0.34014413 -0.17505674 0.72292757 0.0053897747 128 27
nan nan nan 0 107 22
nan nan nan 0 214 45
nan nan nan 0 105 22
nan nan nan 0 122 25
nan nan nan 0 75 15
nan nan nan 0 65 13
nan nan nan 0 53 11
-0.30059886 -0.16921782 0.70997638 0.011320571 52 11
-0.30028608 -0.17104755 0.71928161 0.0099958871 58 12
nan nan nan 0 120 25
nan nan nan 0 140 29
-0.29155231 -0.1722026 0.72913843 0.011342069 54 11
-0.2910718 -0.17406037 0.73869234 0.015011186 48 10
nan nan nan 0 112 23
-0.28209811 -0.17300433 0.73753357 0.0045684511 177 37
nan nan nan 0 121 25
nan nan nan 0 177 37
nan nan nan 0 136 28
nan nan nan 0 154 32
nan nan nan 0 110 23
nan nan nan 0 136 28
nan nan nan 0 131 27
nan nan nan 0 64 13
-0.24281058 -0.16825578 0.73057175 0.0076278453 79 16
-0.23644531 -0.1662447 0.72312737 0.0036130489 217 46
-0.24148718 -0.17231339 0.7508204 0.006979499 99 21
-0.24135198 -0.17481537 0.76299661 0.010331912 62 13
-0.23878279 -0.17560406 0.76767832 0.012336735 59 12
-0.24117674 -0.180124 0.78866774 0.012695791 60 12
-0.23719615 -0.17995071 0.78909659 0.007467261 101 21
-0.2316449 -0.17856115 0.78414094 0.004835411 147 31
-0.22374335 -0.17528494 0.77083117 0.0038777525 173 36
-0.21130243 -0.16828479 0.7410444 0.0050444808 150 31
nan nan nan 0 132 28
nan nan nan 0 114 24
nan nan nan 0 142 30
nan nan nan 0 163 34
nan nan nan 0 109 23
nan nan nan 0 157 33
-0.177553 -0.1599856 0.71019059 0.0080611594 79 16
-0.1754501 -0.1611149 0.71589518 0.0091675203 62 13
-0.17793956 -0.16658764 0.74089718 0.0074274545 100 21
-0.17504443 -0.16713673 0.74399632 0.0049072737 147 31
-0.17160109 -0.16717404 0.74479067 0.0054946262 128 27
-0.16922905 -0.16827819 0.75031388 0.0089392513 82 17
-0.16647074 -0.16903682 0.75427568 0.0085391365 73 15
nan nan nan 0 90 19
nan nan nan 0 94 19
nan nan nan 0 169 35
nan nan nan 0 436 92
-0.10879587 -0.12353847 0.55308849 0.0014455125 744 157
-0.10614555 -0.12344909 0.55300307 0.0012893587 823 174
-0.10378553 -0.12370122 0.55443209 0.0014045255 778 165
-0.10159817 -0.12417725 0.55685097 0.0013824496 742 157
-0.099126182 -0.1243212 0.55776703 0.0014175505 724 153
-0.095745318 -0.12330237 0.55345023 0.0013383689 770 163
-0.092748821 -0.12273604 0.55114758 0.001397186 755 160
-0.089997843 -0.1224717 0.55018622 0.0013324616 786 166
-0.087300368 -0.12226688 0.54947895 0.0013214777 803 170
-0.084880956 -0.12245084 0.55050683 0.0013352146 807 171
-0.081998855 -0.1219581 0.54848027 0.0013064268 825 175
-0.0792429 -0.12162744 0.54717046 0.001352745 769 163
-0.076395392 -0.12112977 0.54509759 0.0012873199 822 174
-0.074077725 -0.12146688 0.54677111 0.0013608347 799 169
-0.071952038 -0.1221538 0.55001074 0.0013273532 795 168
-0.069264419 -0.12190209 0.54901558 0.0012831308 830 176
-0.066427059 -0.12135767 0.54669231 0.0013193534 857 181
-0.063724063 -0.12102534 0.54531527 0.0013287745 858 182
-0.061204016 -0.1210274 0.5454368 0.0011979421 930 197
-0.058588691 -0.12083314 0.54466563 0.0012377707 930 197
-0.056167178 -0.1210391 0.54569143 0.001262663 926 196
-0.053747449 -0.12126847 0.54681623 0.0012739673 883 187
-0.05128089 -0.12140957 0.54753667 0.0012431093 867 183
-0.048756447 -0.12142115 0.54766709 0.001254296 857 181
-0.046152212 -0.12122442 0.54685181 0.0012318991 882 187
-0.043808062 -0.12172762 0.54918855 0.0012234364 886 187
-0.041290451 -0.12178104 0.54949099 0.0012681372 885 187
-0.038693864 -0.12159325 0.54870009 0.0012018512 922 195
-0.036134765 -0.12150524 0.54835451 0.0012246553 907 192
-0.033549722 -0.12131017 0.54752094 0.0012302512 876 185
-0.031097751 -0.12160365 0.54888827 0.0013050798 854 181
-0.028554415 -0.12156023 0.54873085 0.0012923722 845 179
-0.026035927 -0.12162445 0.54905534 0.0013926262 787 166
-0.02346364 -0.12142412 0.54818171 0.0013801274 729 154
-0.020561483 -0.11926202 0.53844744 0.0013407222 794 168
-0.017896935 -0.11807325 0.53310347 0.0012657376 854 181
-0.015399347 -0.1177827 0.53181142 0.0012367922 883 187
-0.012938686 -0.11771794 0.53153569 0.0012229303 897 190
-0.010520724 -0.11810224 0.5332846 0.0012587537 886 187
-0.0080982884 -0.11865558 0.53579402 0.0012650253 851 180
-0.0056307204 -0.11874331 0.53619808 0.0013614136 829 175
-0.0031627931 -0.11895499 0.53715897 0.001334016 820 173
-0.00068588567 -0.11913867 0.53799063 0.0013255009 861 182
0.0017969642 -0.1192089 0.53830713 0.0012741341 838 177
0.0042863428 -0.11937947 0.53907382 0.0012873089 825 175
0.0067723435 -0.11936525 0.53900331 0.0013437947 762 161
0.0092072375 -0.1186998 0.53598917 0.0013394821 789 167
0.011488847 -0.11675831 0.52721053 0.0012712714 901 191
0.013898266 -0.1165672 0.52633274 0.0012588589 916 194
0.016312286 -0.11646579 0.52585691 0.0011819808 948 201
0.018764736 -0.11662947 0.52657497 0.0012724057 918 194
0.021224102 -0.11679371 0.52729213 0.0013633135 830 176
0.023665171 -0.11683383 0.52744561 0.0013350972 837 177
0.025997721 -0.11638066 0.52536869 0.0012654288 866 183
0.02832539 -0.11598482 0.52354705 0.0012474477 882 187
0.030748002 -0.11600943 0.52361965 0.0012327504 882 187
0.033375766 -0.11674805 0.52691072 0.0013167218 856 181
0.036244269 -0.11817124 0.53328627 0.0013676278 794 168
0.039078731 -0.11930951 0.53837043 0.0013414486 768 162
0.041458227 -0.11900565 0.53694195 0.0012164621 899 190
0.043928131 -0.11898096 0.53676814 0.0012251579 897 190
0.04691771 -0.12029129 0.54261112 0.0013897618 784 166
0.049452342 -0.12036145 0.54285342 0.0014390844 750 159
0.052055206 -0.12058291 0.54377198 0.0013958844 724 153
0.054641664 -0.12074772 0.54442853 0.0014336025 693 147
0.057149701 -0.12073236 0.54426593 0.0014539493 686 145
0.059524555 -0.12044879 0.54288751 0.0014471926 719 152
0.0615637 -0.11953634 0.53866833 0.0013720117 748 158
0.062635668 -0.11688987 0.52663088 0.0012880034 824 174
0.064456053 -0.11578591 0.52153873 0.0012929242 822 174
0.066081084 -0.11442331 0.51527619 0.0012447068 873 185
0.06840644 -0.11432603 0.51470464 0.0012321392 895 189
0.070830822 -0.11439522 0.51487392 0.0012796448 877 186
0.073522054 -0.11487686 0.51688957 0.0012920444 824 174
0.076573826 -0.11587372 0.52121168 0.0014424134 746 158
0.079903349 -0.11721709 0.52707887 0.0014706013 725 153
0.082198687 -0.11700866 0.52595568 0.0013691685 743 157
0.085416257 -0.11808722 0.53060466 0.0013779352 738 156
0.090400763 -0.12147977 0.54563153 0.0014958561 651 138
0.093106024 -0.12170812 0.54642725 0.0014549827 699 148
0.096308745 -0.12255743 0.54999518 0.0013985862 725 153
0.099774554 -0.12368904 0.55481225 0.0013964613 736 156
0.10208653 -0.12336926 0.55310273 0.0013246619 847 179
0.10462788 -0.12333559 0.55266184 0.001243114 877 186
0.10760944 -0.12381 0.55448067 0.0012396554 883 187
0.10995881 -0.12355188 0.55300224 0.001235708 872 184
0.11238176 -0.12338633 0.55192256 0.0012396743 882 187
0.11451588 -0.12291818 0.54947352 0.0012353114 926 196
0.11634904 -0.12215453 0.5456894 0.0012562216 934 198
0.11894762 -0.12220997 0.54554814 0.0012880116 911 193
0.12152993 -0.12224672 0.54530406 0.0012736311 890 188
0.12406767 -0.12223806 0.54483783 0.0012574354 856 181
0.12645487 -0.12208441 0.54370552 0.0012351616 875 185
0.12914461 -0.12222313 0.54385465 0.0012472218 868 184
0.13171743 -0.12224799 0.54347497 0.0012961663 815 172
0.13341634 -0.12147619 0.53953481 0.0013526644 818 173
0.13571504 -0.12126907 0.53808421 0.0012526587 863 183
0.13661924 -0.11984625 0.53122371 0.0012045478 918 194
0.13908276 -0.11981781 0.53052717 0.0012027452 929 197
0.14187963 -0.1200725 0.53105921 0.0012865049 866 183
0.14439355 -0.12008303 0.53048545 0.0013126117 843 178
0.14734043 -0.12044716 0.53144681 0.0013273355 786 166
0.15016991 -0.1207047 0.53190875 0.0014012873 722 153
0.15153515 -0.11979622 0.52721018 0.0012925375 824 174
0.15078598 -0.11727272 0.51539803 0.0012398162 902 191
0.15227966 -0.11654621 0.51147711 0.0011489511 990 210
0.15436019 -0.11628462 0.50957626 0.00111308 1041 220
0.15668315 -0.11621091 0.50847453 0.0011191936 1084 229
0.15929726 -0.1163521 0.50828582 0.0011304002 1067 226
0.16202894 -0.11657365 0.50841892 0.0011063667 1053 223
0.16533291 -0.11719432 0.51025963 0.0012719434 894 189
0.17003016 -0.11877015 0.51621556 0.0014326229 771 163
0.17140101 -0.11801057 0.51198798 0.0013009656 811 172
0.16803178 -0.11405501 0.49390617 0.0011668506 981 208
0.16736631 -0.1120194 0.48416263 0.0010659195 1163 246
0.16988969 -0.11214476 0.48375106 0.0010693398 1214 255
0.17257699 -0.11237343 0.48375931 0.0010136535 1232 255
0.17570528 -0.11287929 0.48493281 0.001087927 1158 245
0.17845735 -0.11313331 0.48499736 0.0010795478 1100 233
0.1802958 -0.11280903 0.48256493 0.0011264633 1118 237
0.18256624 -0.11275995 0.48129705 0.001110674 1052 223
0.18486635 -0.11273019 0.48009846 0.0011792107 1027 217
0.18692538 -0.112556 0.47827572 0.0011316981 1018 215
0.18973091 -0.11283008 0.47834909 0.0011660897 996 211
0.19199848 -0.11278144 0.47704798 0.0011422423 1002 212
0.19374242 -0.1124301 0.47447032 0.0011522149 1020 216
0.19504867 -0.11183621 0.47088274 0.001164626 1020 216
0.19628958 -0.11121931 0.46721917 0.0011904138 1025 217
0.19826992 -0.11103086 0.46537772 0.001147475 1005 213
0.20040782 -0.11093401 0.46394283 0.0011989723 976 207
0.20284645 -0.11100391 0.46323147 0.0012790349 876 185
0.20548221 -0.11117891 0.46298853 0.0014071452 766 162
0.2078214 -0.11119132 0.46210501 0.0014942734 730 154
0.20731816 -0.10969944 0.45502609 0.0013670358 749 158
0.20784436 -0.10877886 0.45038569 0.0013351376 807 171
0.20957945 -0.10850401 0.4484832 0.0013461666 804 170
0.21356016 -0.10938521 0.45141599 0.0013870242 733 155
0.21896349 -0.11096879 0.4572987 0.0015461935 619 131
0.22205789 -0.11136135 0.45833385 0.0016846728 537 113
0.22045949 -0.10941672 0.44983301 0.0016057172 584 123
0.22105463 -0.10858942 0.44601613 0.0015028892 647 137
0.22323039 -0.10854747 0.44550866 0.0015522387 620 131
0.22530399 -0.10845718 0.44488567 0.0016611902 564 119
0.22721656 -0.10829192 0.44403934 0.0018362168 510 108
0.23311234 -0.11000967 0.45099708 0.0020663468 434 92
0.22812811 -0.10660949 0.43705752 0.0020028304 455 96
0.22550748 -0.10436881 0.42795211 0.0016536473 558 118
0.22526829 -0.10326256 0.42357445 0.0016958744 569 120
-0.34755608 -0.1381249 0.59018111 0.0044224518 142 30
-0.32366884 -0.12972851 0.55302536 0.0045211208 152 32
nan nan nan 0 136 28
nan nan nan 0 63 13
nan nan nan 0 57 12
nan nan nan 0 82 17
nan nan nan 0 98 20
nan nan nan 0 43 9
-0.40590957 -0.17301825 0.72819853 0.017626461 33 7
nan nan nan 0 38 8
-0.40569431 -0.17612067 0.73950976 0.023574261 28 5
-0.399928 -0.17523581 0.73510998 0.020075547 31 6
nan nan nan 0 46 9
-0.32895139 -0.14687435 0.61531281 0.0065792562 109 23
nan nan nan 0 95 20
nan nan nan 0 47 9
nan nan nan 0 81 17
nan nan nan 0 152 32
nan nan nan 0 72 15
-0.34895241 -0.16522108 0.69250607 0.010600777 67 14
-0.34727007 -0.1660976 0.69669712 0.0070222663 86 18
nan nan nan 0 74 15
-0.40462428 -0.19755015 0.83030444 0.013159732 48 10
nan nan nan 0 42 8
-0.34509733 -0.17206155 0.72512633 0.0066235648 93 19
-0.33892882 -0.17079769 0.72093296 0.0051272763 132 28
-0.33250985 -0.16937883 0.71616596 0.0057404102 104 22
nan nan nan 0 105 22
nan nan nan 0 102 21
nan nan nan 0 159 33
nan nan nan 0 159 33
-0.31441632 -0.16933765 0.72325128 0.0048204106 133 28
-0.30715513 -0.16734432 0.71633291 0.0081026973 72 15
nan nan nan 0 116 24
nan nan nan 0 70 14
nan nan nan 0 112 23
nan nan nan 0 138 29
-0.29657468 -0.17152004 0.74269587 0.0085457247 79 16
-0.28782374 -0.16853262 0.73143661 0.011752186 55 11
nan nan nan 0 64 13
-0.28271568 -0.16977131 0.74014932 0.0053537064 122 25
-0.27620298 -0.16800675 0.73407769 0.0048243804 135 28
nan nan nan 0 129 27
nan nan nan 0 107 22
nan nan nan 0 135 28
nan nan nan 0 108 22
nan nan nan 0 145 30
nan nan nan 0 162 34
-0.24946281 -0.16685592 0.73947495 0.0085069016 76 16
-0.24299952 -0.16487901 0.73204333 0.0084540183 71 15
-0.23925896 -0.1647187 0.73262119 0.0081160525 86 18
nan nan nan 0 47 9
nan nan nan 0 66 14
nan nan nan 0 112 23
nan nan nan 0 74 15
nan nan nan 0 79 16
nan nan nan 0 94 19
nan nan nan 0 137 29
nan nan nan 0 144 30
nan nan nan 0 132 28
nan nan nan 0 130 27
-0.20205654 -0.16582216 0.74924541 0.006202287 110 23
nan nan nan 0 144 30
-0.19124408 -0.16262737 0.73642975 0.0049313097 132 28
nan nan nan 0 143 30
nan nan nan 0 153 32
-0.17953983 -0.16143605 0.73320496 0.010959114 69 14
-0.17691427 -0.16217753 0.73723775 0.0053046979 121 25
-0.1728466 -0.16160025 0.73524708 0.0036919296 185 39
-0.17132112 -0.16342455 0.74415922 0.0078889998 82 17
nan nan nan 0 103 21
nan nan nan 0 136 28
nan nan nan 0 137 29
nan nan nan 0 122 25
nan nan nan 0 255 54
-0.11359933 -0.12338718 0.5642001 0.0016301512 571 121
-0.10860743 -0.12075551 0.55248755 0.0013498908 765 162
-0.10578888 -0.12047131 0.5514912 0.0013199927 797 169
-0.10455521 -0.12202266 0.5588848 0.0014238377 714 151
-0.10196445 -0.12202886 0.5591898 0.001447971 689 146
-0.098850779 -0.12139324 0.55653745 0.0014086324 715 151
-0.095730692 -0.1207154 0.55367482 0.0014447654 737 156
-0.093026713 -0.12053938 0.55309868 0.001503665 719 152
-0.09018103 -0.12016457 0.55159634 0.0013586537 754 159
-0.087193288 -0.11957306 0.5490852 0.0013626353 784 166
-0.08456026 -0.11944706 0.54869884 0.0012696205 840 178
-0.082033463 -0.11946798 0.54897565 0.0013052871 853 180
-0.079387993 -0.11931187 0.54842812 0.0013126865 790 167
-0.076564595 -0.11886919 0.54655212 0.0012965612 815 172
-0.073849484 -0.11857016 0.54532576 0.0012995554 832 176
-0.071668655 -0.11913812 0.54807794 0.0013020352 817 173
-0.069099464 -0.11907847 0.54793441 0.0012825769 826 175
-0.066340633 -0.11867505 0.54620004 0.0013053147 870 184
-0.063767426 -0.11858488 0.54589874 0.0012809444 866 183
-0.061227206 -0.11855117 0.5458495 0.0012931793 901 191
-0.058705781 -0.1185525 0.54595417 0.0012636515 933 197
-0.056115404 -0.11840846 0.5453825 0.0012945837 913 193
-0.053620405 -0.11846164 0.54571235 0.0012651879 907 192
-0.051230084 -0.11876268 0.54717809 0.0012541604 865 183
-0.048802271 -0.11900356 0.548361 0.0012608644 844 179
-0.046243627 -0.1189343 0.54810929 0.0012550972 863 183
-0.043785464 -0.11913042 0.54907531 0.0012677572 879 186
-0.041343868 -0.11939845 0.55036795 0.001301565 890 188
-0.038755275 -0.11924929 0.54973269 0.0012826172 883 187
-0.036124691 -0.11894099 0.54835916 0.0012336582 880 186
-0.03376073 -0.11953021 0.55111927 0.001235167 873 185
-0.031261347 -0.11969691 0.55192739 0.001304434 853 180
-0.028734758 -0.11977976 0.55234516 0.0013882976 804 170
-0.026123907 -0.11949331 0.55105615 0.0014430834 729 154
-0.023525575 -0.11920854 0.54977125 0.0014994182 693 147
-0.020709056 -0.1176158 0.54245043 0.0014563571 732 155
-0.018029597 -0.11647065 0.53719014 0.0012870049 828 175
-0.015470158 -0.11585946 0.53438944 0.0012959949 858 182
-0.012954332 -0.11540512 0.53230906 0.0012967737 882 187
-0.010443794 -0.11479643 0.52951378 0.0012296805 893 189
-0.0079996269 -0.11476839 0.52939415 0.00124468 885 187
-0.0056157131 -0.11595987 0.53489727 0.0012798668 838 177
-0.0031730179 -0.11685357 0.53902435 0.0013338299 781 165
-0.00068693311 -0.11683502 0.53894073 0.0013343927 791 167
0.0017994011 -0.11688393 0.53916585 0.001318858 794 168
0.0042858971 -0.1168805 0.53914684 0.0013127682 806 170
0.0067769974 -0.11695905 0.5395034 0.0014606632 706 149
0.0092621818 -0.11692074 0.53931826 0.0014328595 709 150
0.011541666 -0.11485171 0.52976364 0.0013090029 798 169
0.013924317 -0.1143529 0.52744925 0.0012520773 858 182
0.016355395 -0.11434104 0.52737814 0.001281091 829 175
0.018773457 -0.11425303 0.52695304 0.0013199195 794 168
0.021204945 -0.11425753 0.52695155 0.0013514672 821 174
0.023606228 -0.11411509 0.52626938 0.0012548364 861 182
0.025725208 -0.1127618 0.52000004 0.0011968772 926 196
0.028276987 -0.11337466 0.52279437 0.0012153168 908 192
0.030780731 -0.11371373 0.52432245 0.0012430033 871 184
0.033549313 -0.11491048 0.52980083 0.0012514333 853 180
0.036143139 -0.11538675 0.53195268 0.0014146004 800 169
0.039144389 -0.11702044 0.53943539 0.0013178504 794 168
0.041673679 -0.11713221 0.53989714 0.001299869 853 180
0.044498272 -0.11801454 0.5439052 0.0014074483 762 161
0.047151309 -0.11837194 0.54548836 0.0013756533 732 155
0.04968733 -0.11841422 0.54561359 0.0013970211 717 152
0.05219214 -0.11838163 0.54538804 0.0014924131 691 146
0.054684795 -0.11832574 0.54504913 0.001436227 699 148
0.05710683 -0.11812868 0.54405379 0.0014267303 701 148
0.058732346 -0.11637006 0.53586119 0.0013668058 751 159
0.060264528 -0.11457624 0.5275026 0.0013335601 781 165
0.062004339 -0.1133013 0.52152836 0.0012569411 850 180
0.064426884 -0.11332265 0.52151459 0.0013672292 838 177
0.065973848 -0.11185792 0.51465535 0.0013022271 875 185
0.068299063 -0.11176877 0.51411855 0.0013156487 887 188
0.070539556 -0.11155162 0.51298487 0.0012974417 878 186
0.073054925 -0.11176917 0.51384115 0.0012957683 844 179
0.075557128 -0.11195348 0.51453459 0.001312893 803 170
0.079463087 -0.11414292 0.52443016 0.0014220336 724 153
0.082671575 -0.11523037 0.52924722 0.0015054429 669 141
0.084995188 -0.11505732 0.52826238 0.0013981443 730 154
0.089677684 -0.11799778 0.54155606 0.0015547465 668 141
0.09301164 -0.11905202 0.54617333 0.0015439129 674 142
0.096133031 -0.11978549 0.5493027 0.0014801866 691 146
0.09943711 -0.12070285 0.5532583 0.0014550907 688 145
0.10195707 -0.12064616 0.55273312 0.0013274294 784 166
0.10429572 -0.12038298 0.55124789 0.0013650869 818 173
0.10750838 -0.12111706 0.55431253 0.0013659797 818 173
0.11011039 -0.12114493 0.55412728 0.0012795593 828 175
0.1123149 -0.12074418 0.55196571 0.0013296299 826 175
0.11483192 -0.12068982 0.55137187 0.001333887 824 174
0.11716883 -0.12045267 0.54992592 0.0013131377 819 173
0.1194275 -0.12014697 0.5481503 0.00128398 832 176
0.12158744 -0.11975683 0.54597288 0.0012752062 840 178
0.1238827 -0.11951326 0.54444629 0.0012726554 846 179
0.12642944 -0.11951722 0.54402804 0.0013005106 833 176
0.12898642 -0.11953048 0.54363155 0.0012955831 824 174
0.13135235 -0.11936965 0.54242247 0.0012981123 811 172
0.13290568 -0.11849044 0.53793156 0.0013235421 836 177
0.13488126 -0.1180134 0.53524983 0.0012400913 879 186
0.13669437 -0.11741426 0.53199625 0.0012176052 927 196
0.13891488 -0.11718025 0.53037775 0.0012750681 903 191
0.1414815 -0.11724132 0.53007174 0.0013062253 867 183
0.14443944 -0.11761892 0.53117007 0.0013658531 844 179
0.14714551 -0.11778206 0.53127217 0.0013653297 754 159
0.14945857 -0.11763044 0.52992868 0.0013446116 771 163
0.14877449 -0.11516375 0.51814502 0.0012718252 899 190
0.15044646 -0.11457122 0.51478565 0.0012235173 942 199
0.15189357 -0.11382908 0.51073599 0.0012078288 1005 213
0.15385278 -0.11348798 0.5084663 0.0011344748 1051 222
0.15656966 -0.1137077 0.50868338 0.0011168312 1042 221
0.15877238 -0.11355296 0.50719792 0.0011386253 1056 224
0.1616699 -0.11389235 0.5078913 0.0011406011 1023 217
0.16587177 -0.11512705 0.51253831 0.0012564379 862 182
0.16866297 -0.11536092 0.51269138 0.0013329216 772 163
0.16837716 -0.11351369 0.50358123 0.0012338459 882 187
0.16703239 -0.11101488 0.49158898 0.0011278018 1061 225
0.16763826 -0.10986413 0.48557088 0.0010393912 1199 254
0.16949368 -0.10955269 0.48325011 0.00099844509 1261 255
0.17202507 -0.10968067 0.48284572 0.0010449772 1237 255
0.1749945 -0.11008079 0.48361212 0.0010588838 1194 253
0.17772093 -0.1103195 0.48364243 0.0010708922 1118 237
0.17999093 -0.11027232 0.48239794 0.0011206137 1056 224
0.18215644 -0.1101632 0.48086631 0.0011135041 1056 224
0.18394904 -0.10983418 0.47836357 0.0011733838 1045 221
0.18636543 -0.10988118 0.47748876 0.0011340431 1018 215
0.1887114 -0.10988605 0.47642055 0.0011990261 1014 215
0.19026251 -0.10943359 0.47336796 0.0011219125 1032 218
0.19232802 -0.10928437 0.47163072 0.0010984991 1078 228
0.19455886 -0.10923155 0.47031349 0.0010998655 1070 226
0.19647536 -0.10900555 0.46826023 0.0011279281 1031 218
0.19824781 -0.10870586 0.46590731 0.0011427585 1001 212
0.20016353 -0.10849071 0.4639391 0.001162826 980 207
0.20194551 -0.10820882 0.46171325 0.001262689 928 196
