# .PCD v0.7 - Point Cloud Data file format
VERSION 0.7
FIELDS x y z noise intensity gray
SIZE 4 4 4 4 2 1
TYPE F F F F U U
COUNT 1 1 1 1 1 1
WIDTH 933
HEIGHT 1
VIEWPOINT 0 0 0 1 0 0 0
POINTS 933
DATA ascii
-0.29047093 -0.23905644 0.66267884 0.010318151 62 15
-0.28443301 -0.23683229 0.6566996 0.0028973259 237 60
-0.28146017 -0.23713782 0.65782255 0.0030080886 227 57
-0.28268877 -0.24103294 0.66899729 0.0049504586 138 35
nan nan nan 0 88 22
-0.26425847 -0.23086298 0.64172393 0.0054202457 113 28
nan nan nan 0 88 22
nan nan nan 0 61 15
-0.2637119 -0.23921515 0.66700971 0.0093732802 68 17
-0.25750476 -0.23660731 0.66055888 0.0021632072 359 91
-0.25859222 -0.2407216 0.67294198 0.0023497471 361 91
-0.26008236 -0.24532501 0.68678284 0.0029235363 248 62
-0.25761297 -0.24626724 0.69044888 0.0039901328 195 49
-0.25414321 -0.24626584 0.69151986 0.003049674 231 58
-0.24822946 -0.24386342 0.68587881 0.0035246441 190 48
-0.24026278 -0.23934841 0.67429912 0.0029336731 269 68
-0.2352284 -0.23766765 0.67070347 0.0019984688 422 107
-0.23183399 -0.23761924 0.67172956 0.0026338336 281 71
-0.22791922 -0.2370283 0.67123699 0.0044292342 148 37
-0.22300214 -0.23536189 0.66770071 0.0022430629 346 87
-0.22019275 -0.23590325 0.67043078 0.0031769513 226 57
-0.21688791 -0.23592232 0.67168385 0.0031934807 226 57
nan nan nan 0 122 30
-0.213258 -0.23930588 0.68374753 0.0092739994 63 15
-0.21212511 -0.24185686 0.69225633 0.0054428405 117 29
-0.20933905 -0.24257548 0.69552749 0.0041701593 166 42
-0.20547181 -0.24204427 0.6952036 0.0034332527 196 49
nan nan nan 0 184 46
-0.19252279 -0.23457369 0.6760264 0.0042915209 160 40
nan nan nan 0 166 42
nan nan nan 0 185 46
-0.1842989 -0.23674068 0.6855827 0.0023259276 324 82
-0.17826363 -0.23320706 0.67639428 0.0014068402 721 182
-0.17563084 -0.23407541 0.6799385 0.0015006308 643 163
-0.17218591 -0.23387393 0.68035418 0.0018090734 494 125
nan nan nan 0 185 46
-0.16763189 -0.23674585 0.69066054 0.0043695159 147 37
-0.16391939 -0.23620076 0.69000584 0.0038837197 167 42
-0.15925454 -0.23423234 0.68515795 0.0030749594 258 65
-0.15123601 -0.22714373 0.66527295 0.0017702107 486 123
-0.14821672 -0.22741944 0.6669066 0.0025842239 327 82
-0.14834115 -0.23263749 0.68302822 0.0033694743 219 55
-0.14510302 -0.23269877 0.68400258 0.0019946792 412 104
-0.14224251 -0.23338245 0.68678373 0.0022778322 374 94
-0.13769808 -0.23127028 0.68130797 0.0022402017 408 103
-0.13348955 -0.2296336 0.67719638 0.0043235691 158 40
-0.13252334 -0.23363169 0.68968457 0.0034134109 197 49
-0.12830073 -0.23194627 0.68537802 0.0015428787 605 153
-0.1245418 -0.23103303 0.68332201 0.0011807075 1018 255
-0.12036686 -0.22927833 0.67874658 0.0012034501 929 235
nan nan nan 0 325 82
-0.10080869 -0.20291013 0.60171509 0.0027981296 262 66
-0.098062128 -0.20314033 0.60288292 0.0022538796 395 100
-0.095565967 -0.20391867 0.6056608 0.0018395555 474 120
-0.092868716 -0.20430285 0.60725206 0.00181387 514 130
-0.08960095 -0.20341639 0.60504705 0.0016961908 532 134
-0.087912329 -0.20617482 0.61366934 0.0017644748 505 128
-0.084487759 -0.20491144 0.61030626 0.0017531728 511 129
-0.081420645 -0.20445633 0.60932994 0.0017513491 525 133
-0.078559384 -0.20450372 0.6098336 0.0017524915 527 133
-0.075660713 -0.2044536 0.61002976 0.0016813503 543 137
-0.072425969 -0.20345543 0.60737962 0.0016167095 575 145
-0.069789864 -0.20412596 0.60969466 0.0015843281 588 149
-0.066944912 -0.20421706 0.61026472 0.0016107536 575 145
-0.064296387 -0.20494241 0.61271602 0.0017733562 546 138
-0.061475929 -0.20516215 0.61364239 0.0017186692 541 137
-0.058521301 -0.20493375 0.6132136 0.001772393 501 127
-0.055486903 -0.20438777 0.61181939 0.0018522921 484 122
-0.052305944 -0.20321266 0.60852617 0.0018339984 469 119
-0.049235579 -0.2023561 0.60617089 0.0018805965 454 115
-0.046301529 -0.20198888 0.60526705 0.0020030281 426 108
-0.043301038 -0.2012648 0.60327995 0.0021319888 406 103
-0.039966285 -0.1987768 0.59599012 0.0020245009 407 103
-0.035751615 -0.19120799 0.57344621 0.0018841563 449 113
-0.032688089 -0.18906422 0.56715322 0.0017348581 518 131
-0.029895322 -0.18824509 0.56482041 0.0016532878 558 141
-0.027103269 -0.18727151 0.5620119 0.001565538 600 152
-0.024384439 -0.18664847 0.56024373 0.0015626248 606 153
-0.021734541 -0.18646629 0.55978745 0.0015963326 605 153
-0.019155413 -0.18692462 0.56124353 0.0018465657 503 127
-0.016143538 -0.18263331 0.54842675 0.0019133689 476 120
-0.01339389 -0.18024422 0.54130965 0.0017701662 491 124
-0.01090846 -0.18112487 0.54400176 0.0018563912 504 127
-0.0085481815 -0.18525536 0.55644572 0.0018293168 474 120
-0.0059697866 -0.18621135 0.55934536 0.0019207386 465 117
-0.0033905329 -0.1886175 0.56659126 0.0018642942 463 117
-0.00075160601 -0.19310495 0.5800792 0.0019191544 445 112
0.0019793585 -0.19422083 0.58342898 0.0019587926 455 115
0.0047116713 -0.19409746 0.58304548 0.0018179432 483 122
0.0075340206 -0.19641194 0.58997405 0.0020318783 463 117
0.010272441 -0.19588287 0.58835047 0.001857904 495 125
0.013076198 -0.19655994 0.59033877 0.0018001024 487 123
0.016044091 -0.19903663 0.59772021 0.0019061429 482 122
0.019013012 -0.20078744 0.60290956 0.0019640431 453 114
0.021823915 -0.2006322 0.60236359 0.0018846588 494 125
0.024631975 -0.20048943 0.60184389 0.0017785904 501 127
0.027839361 -0.20329203 0.61015296 0.0018793828 504 127
0.031291634 -0.20719342 0.62174445 0.0019057291 454 115
0.034372918 -0.20818229 0.6245811 0.0019443757 435 110
0.038205873 -0.21321054 0.63951987 0.0020180098 410 104
0.041986689 -0.21723621 0.65143234 0.0020610741 402 102
0.045078259 -0.21739109 0.65172082 0.0020131913 441 111
0.047996446 -0.21674336 0.64958978 0.0018711232 517 131
0.051189438 -0.21733986 0.65117413 0.0016572952 564 143
0.054185413 -0.21707973 0.6501776 0.0015876986 587 148
0.057165049 -0.21678543 0.64906484 0.0016259321 563 142
0.060159054 -0.2165727 0.64818239 0.0016574514 552 140
0.062823586 -0.21525164 0.64396966 0.0016986055 531 134
0.065873116 -0.21531059 0.6438719 0.0018510546 521 132
0.068926096 -0.21537513 0.64377534 0.0017668497 519 131
0.072142571 -0.21592355 0.64510852 0.0017965129 528 133
0.074853383 -0.2149754 0.64195478 0.0016930215 538 136
0.077533595 -0.21401651 0.63875556 0.0017860796 562 142
0.080630749 -0.21423717 0.63906127 0.0016687906 549 139
0.083827026 -0.2146958 0.64005852 0.0017821842 537 136
0.086582892 -0.21403378 0.63769782 0.0017236936 519 131
0.089516006 -0.21383971 0.63671494 0.0017619747 499 126
0.092500098 -0.21377616 0.63610309 0.0018769644 504 127
0.094963223 -0.21255054 0.6320172 0.0017776708 507 128
0.098017439 -0.21268234 0.63195121 0.0018371141 511 129
0.10094314 -0.2125358 0.63103896 0.0018282289 506 128
0.10360809 -0.21186449 0.62855071 0.0018806809 499 126
0.10645882 -0.21159999 0.62725163 0.0017533576 505 128
0.10900033 -0.21075204 0.62420541 0.0018271232 517 131
0.11187197 -0.21057042 0.62311471 0.00171991 526 133
0.11481456 -0.2105283 0.62241638 0.0017617514 537 136
0.11776806 -0.21050778 0.62176067 0.0017833899 547 138
0.12031547 -0.20978025 0.61899728 0.001694181 536 136
0.12301046 -0.20933869 0.61705941 0.0017857191 529 134
0.12540166 -0.20841299 0.61367637 0.0017171757 540 137
0.12883076 -0.20921506 0.61535889 0.0018412477 519 131
0.13154979 -0.20885395 0.6135962 0.0018506785 509 129
0.13423753 -0.20846006 0.6117171 0.0017623223 497 126
0.13697666 -0.2081611 0.61009622 0.0017300214 518 131
0.13956678 -0.20765296 0.60784245 0.0016976667 533 135
0.14206462 -0.20703125 0.60523748 0.0017940467 544 138
0.14474078 -0.20668915 0.60343111 0.0016657177 558 141
0.14688058 -0.20560972 0.59945536 0.0016886964 559 141
0.14949328 -0.20522122 0.59747785 0.0017488075 559 141
0.15238728 -0.20522632 0.5966261 0.0016705743 545 138
0.15524009 -0.20517677 0.59559464 0.0016607986 555 140
0.15734105 -0.20415345 0.5917204 0.0016839105 577 146
0.15947746 -0.20321207 0.58807302 0.0016086625 574 145
0.16228437 -0.20314319 0.58693618 0.0016501354 586 148
0.16471969 -0.20261963 0.58447057 0.0016041 582 147
0.16696334 -0.20188214 0.58137757 0.0017737368 558 141
0.17020355 -0.20235409 0.58175391 0.0017213166 525 133
0.17400405 -0.20346573 0.58394825 0.0020184068 411 104
nan nan nan 0 262 66
0.20500699 -0.23207429 0.66373342 0.0028312413 249 63
0.21125279 -0.23539194 0.6720311 0.0038051924 177 44
0.21443078 -0.23524149 0.67040682 0.0042452691 152 38
0.21980949 -0.23747315 0.67555916 0.004274948 150 38
0.22516893 -0.23961742 0.68044299 0.0039691022 170 43
0.22787374 -0.23891515 0.67724258 0.0025210306 304 77
0.22884893 -0.23644626 0.66906112 0.0017321788 511 129
0.23110549 -0.23535308 0.66480565 0.0026583518 316 80
0.23446314 -0.23539631 0.66378582 0.0030218828 240 60
0.25019184 -0.24768543 0.69726449 0.0035749604 206 52
0.25345495 -0.24746561 0.69550389 0.0040752194 163 41
0.26037914 -0.25077778 0.7036944 0.0058927508 114 28
nan nan nan 0 111 28
nan nan nan 0 135 34
nan nan nan 0 168 42
0.25914684 -0.23674586 0.66057056 0.0036103774 181 45
0.26829731 -0.24199189 0.6743986 0.0045575835 141 35
0.2735208 -0.24360877 0.67815971 0.0041710269 156 39
0.27475408 -0.24167576 0.6721139 0.0045538805 140 35
0.27456889 -0.23855764 0.66286361 0.0068270941 99 25
0.27754489 -0.23822822 0.6614514 0.0068544303 84 21
0.27953234 -0.23706837 0.65782022 0.0056254584 125 31
0.28442785 -0.23837309 0.66111422 0.0039160182 170 43
0.28762916 -0.23824401 0.66051906 0.0040655993 173 43
0.29117271 -0.23839812 0.66079956 0.00362525 187 47
0.29761535 -0.24089529 0.66766572 0.0044081956 146 37
0.30122352 -0.2410678 0.6681813 0.0046429019 129 32
0.30068713 -0.23795652 0.6596868 0.003009594 246 62
0.30793625 -0.24100718 0.6683681 0.0026991286 272 69
0.3083587 -0.23870668 0.6623016 0.0026761787 279 70
0.30280271 -0.23187768 0.6437465 0.0036485437 194 49
0.30319405 -0.22970009 0.63817543 0.0068526361 84 21
nan nan nan 0 75 19
0.3273662 -0.2428311 0.67592549 0.0085198721 64 16
0.3317022 -0.2435036 0.67856252 0.0085952701 66 16
0.33076033 -0.24032748 0.67054904 0.0065101744 90 22
0.33090433 -0.2379967 0.6649543 0.0056607551 109 27
0.3360509 -0.23927458 0.66951501 0.0073958621 78 19
nan nan nan 0 83 21
0.34609583 -0.24158172 0.67819524 0.0077077327 77 19
0.34260717 -0.23681855 0.66601902 0.0076942132 82 20
0.34540761 -0.23645243 0.66624987 0.0084269652 82 20
0.35051623 -0.23765835 0.67097956 0.0072524394 80 20
-0.39572403 -0.23422007 0.69013631 0.014181299 40 10
-0.38188311 -0.2279553 0.67080975 0.012477943 54 13
-0.37501544 -0.22578104 0.66319156 0.0085884044 66 16
nan nan nan 0 82 20
nan nan nan 0 89 22
-0.35738605 -0.22086558 0.64421105 0.006293172 89 22
-0.3541708 -0.22082801 0.64249402 0.0044512944 156 39
-0.35069737 -0.22062735 0.64031696 0.0055420483 126 31
-0.35591447 -0.2259399 0.65413421 0.0059903087 101 25
-0.35711172 -0.22877446 0.66076088 0.0072105243 95 24
-0.36162645 -0.23380634 0.67372912 0.013675441 43 10
nan nan nan 0 54 13
-0.33627033 -0.22150403 0.63547081 0.0036788953 177 44
-0.33482969 -0.22265008 0.63743228 0.0032205114 240 60
-0.33633587 -0.2257964 0.64515591 0.0062115351 109 27
-0.33250353 -0.225385 0.64276195 0.0059194784 101 25
-0.3318426 -0.22713631 0.64659458 0.0038258156 166 42
nan nan nan 0 162 41
nan nan nan 0 79 20
-0.32138401 -0.22662517 0.64208198 0.0043946574 142 36
-0.31751487 -0.22617507 0.63993728 0.0041388036 157 39
nan nan nan 0 68 17
-0.33061421 -0.24039839 0.67858219 0.0099724876 59 14
-0.32520869 -0.23894981 0.67382777 0.0041654161 170 43
-0.31004113 -0.23022167 0.64865893 0.0028658856 247 62
-0.31135017 -0.23367232 0.6579057 0.0074173217 100 25
-0.30882585 -0.23428953 0.65925729 0.004947816 143 36
-0.30553132 -0.23432957 0.65907526 0.0036878115 205 52
-0.30320129 -0.23511845 0.66109157 0.0037517922 171 43
-0.29399642 -0.23053417 0.64809525 0.0023928848 362 91
-0.29347891 -0.23273525 0.65426868 0.0057757129 129 32
-0.29257345 -0.23467566 0.65980268 0.010535979 54 13
-0.29433891 -0.2388282 0.67165291 0.013622614 44 11
-0.28467995 -0.23369956 0.65749264 0.0032953015 196 49
-0.28066844 -0.23314038 0.65627104 0.0023155045 342 86
-0.27981746 -0.23522462 0.66258103 0.0029497242 243 61
-0.27964127 -0.23793368 0.67074597 0.0052693281 112 28
-0.27743062 -0.23895705 0.67425054 0.0080750231 79 20
nan nan nan 0 65 16
nan nan nan 0 71 18
-0.2650066 -0.23700404 0.67103702 0.0032131386 217 55
-0.25605476 -0.23196149 0.65764165 0.0016386878 557 141
nan nan nan 0 156 39
nan nan nan 0 331 83
-0.24402983 -0.2299969 0.65501559 0.0040497333 161 40
-0.2446377 -0.2337164 0.66669542 0.007965358 93 23
-0.24780084 -0.24001379 0.68581194 0.0064550606 93 23
-0.24084364 -0.23654805 0.67707521 0.0045399852 163 41
-0.23528215 -0.23437399 0.67203224 0.0020398262 398 100
-0.23164839 -0.23408519 0.67240179 0.0021439234 375 95
-0.22835141 -0.23413324 0.67375195 0.0036591603 208 52
-0.2237715 -0.23284772 0.67126745 0.0026644869 275 69
nan nan nan 0 152 38
-0.21630923 -0.23197909 0.67119473 0.0038958178 182 46
-0.21256693 -0.23151234 0.6710552 0.0027721473 285 72
-0.21110661 -0.23355547 0.67819268 0.0080153625 74 18
-0.21086946 -0.23703918 0.68953282 0.0069458131 100 25
-0.20867902 -0.23840508 0.69472504 0.0027860319 259 65
-0.20558965 -0.23877227 0.69700086 0.0028736105 278 70
-0.20031556 -0.23657171 0.69175506 0.0033500155 223 56
-0.19448119 -0.2336226 0.68427616 0.0032976284 235 59
nan nan nan 0 172 43
nan nan nan 0 214 54
-0.18290767 -0.23164457 0.68176144 0.0017773982 513 130
-0.17866655 -0.23044232 0.67926478 0.0018969948 460 116
nan nan nan 0 249 63
-0.17213337 -0.23050983 0.68147445 0.0025987169 288 73
-0.16603966 -0.22668581 0.6711207 0.002569444 321 81
-0.16560811 -0.2305937 0.68363243 0.0024947131 323 81
-0.16218518 -0.23041046 0.68400478 0.0026865762 284 72
-0.155028 -0.22480468 0.66823089 0.0053151222 122 30
-0.15387882 -0.2278581 0.67816103 0.0026313951 312 79
-0.14823985 -0.22425154 0.66824204 0.0016719801 539 136
-0.1482358 -0.22919825 0.68378949 0.0023915491 346 87
-0.14290561 -0.22594722 0.67486072 0.001821326 469 119
-0.13719766 -0.22193491 0.66360873 0.0028249349 254 64
-0.13828503 -0.22898512 0.68541974 0.0025944347 292 74
-0.1364588 -0.23143542 0.69346702 0.002936695 257 65
-0.1330426 -0.23124383 0.69358057 0.0024463255 348 88
-0.12786293 -0.22789933 0.68420297 0.0014746937 690 175
-0.12466836 -0.22801071 0.68516779 0.0021227011 431 109
-0.12049886 -0.22629716 0.68062103 0.0018563148 463 117
nan nan nan 0 287 72
-0.1027458 -0.2038966 0.61427331 0.0033596111 202 51
-0.097500369 -0.19913207 0.60039109 0.0021353557 371 94
-0.094620779 -0.19905832 0.60062146 0.0017158332 517 131
-0.092283785 -0.20015685 0.60437292 0.0017330458 540 137
-0.089388423 -0.20007585 0.60454696 0.0016332753 563 142
-0.08665289 -0.20035908 0.60580426 0.0017833071 557 141
-0.084034726 -0.20094228 0.60795289 0.001826716 529 134
-0.081319571 -0.20132662 0.60948473 0.0018548481 502 127
-0.078560777 -0.20162717 0.61074758 0.0017155735 525 133
-0.075680673 -0.20162731 0.61108482 0.0018231432 531 134
-0.072811447 -0.20165767 0.6114977 0.001683064 535 135
-0.069454655 -0.20028451 0.60763711 0.0016201423 563 142
-0.066871487 -0.20112012 0.61046153 0.0017503753 549 139
-0.064168982 -0.2016557 0.61236244 0.0017106442 522 132
-0.061189797 -0.2013313 0.61163777 0.0017813403 500 126
-0.05812531 -0.20068036 0.6099056 0.0018342327 487 123
-0.055191088 -0.20043497 0.60939103 0.0018534862 463 117
-0.052244544 -0.20011555 0.60863733 0.0020528 438 111
-0.049104907 -0.1989767 0.60537666 0.0020744542 427 108
-0.046042267 -0.1980291 0.60268283 0.001987699 420 106
-0.042911727 -0.19664623 0.59864962 0.0019783159 420 106
-0.039203543 -0.19223717 0.58538657 0.002106403 411 104
-0.035378527 -0.18654785 0.5682053 0.001829939 471 119
-0.032607459 -0.18594171 0.56649071 0.0018412172 516 130
-0.029901071 -0.18562962 0.56566036 0.0016604096 547 138
-0.02714053 -0.18488789 0.5635094 0.0016495769 592 150
-0.024402266 -0.18415433 0.56137192 0.0016210158 610 154
-0.021704918 -0.18358962 0.55973798 0.0015683563 601 152
-0.019033827 -0.18312232 0.55839032 0.001825624 475 120
-0.015858699 -0.17688416 0.53943312 0.0018804657 514 130
-0.013284545 -0.17625496 0.53756905 0.0017799407 560 142
-0.010781505 -0.1764957 0.53834838 0.0017011372 527 133
-0.0084210327 -0.17992954 0.54885876 0.0017877661 498 126
-0.0059578777 -0.18322259 0.55893105 0.0018716761 460 116
-0.0033760429 -0.18516636 0.56487817 0.001837189 474 120
-0.00074039021 -0.1875443 0.57214028 0.0020405541 460 116
0.0019717505 -0.19074954 0.58191615 0.0019792195 452 114
0.0047053606 -0.1911076 0.58299595 0.0019905642 478 121
0.0074880458 -0.19246407 0.58711123 0.0019661719 471 119
0.010246342 -0.19263348 0.58759475 0.0017763022 497 126
0.013014195 -0.19287278 0.58828104 0.0018568306 505 128
0.016085178 -0.19673599 0.60000908 0.001825247 477 121
0.018919323 -0.19698417 0.60070008 0.0019714595 481 122
0.021754883 -0.19718094 0.60122311 0.0017899483 493 125
0.024558434 -0.19707568 0.60081434 0.0018875888 521 132
0.027479542 -0.19783844 0.6030404 0.0018222564 508 128
0.030893221 -0.20167451 0.61462051 0.0018303702 473 120
0.033923093 -0.20256433 0.61720741 0.0019097476 467 118
0.037007961 -0.2036169 0.62027699 0.0019274034 460 116
0.040821075 -0.20823087 0.63417947 0.0019635961 423 107
0.044738896 -0.21271594 0.64766967 0.0020551125 405 102
0.048108384 -0.21418923 0.65197182 0.0019134994 440 111
0.051083915 -0.21383724 0.65070373 0.0018249395 501 127
0.054134812 -0.21382262 0.65044868 0.0016376507 564 143
0.057079963 -0.21341419 0.64898235 0.0016070398 585 148
0.059781339 -0.21218196 0.64499837 0.0016265588 565 143
0.062452011 -0.21096495 0.64104891 0.0016692532 548 139
0.065508276 -0.21110255 0.64120221 0.001714783 530 134
0.068778001 -0.21188565 0.6433 0.0017013669 532 134
0.071693219 -0.21155661 0.64200532 0.0016938573 538 136
0.074586131 -0.21119104 0.64058506 0.0016869481 539 136
0.077437721 -0.21074146 0.63889503 0.0016734878 544 138
0.080397815 -0.21060976 0.63815325 0.0018023846 546 138
0.083447665 -0.21071421 0.63811034 0.0017296881 547 138
0.086026393 -0.20966314 0.6345526 0.0017036048 553 140
0.088753782 -0.20903292 0.63225424 0.0017047744 528 133
0.091237195 -0.20788786 0.62838411 0.0018382354 525 133
0.09418714 -0.20784445 0.62782824 0.001737955 514 130
0.097093329 -0.20771009 0.62697941 0.0018199633 522 132
0.10002246 -0.20763133 0.62628007 0.0017729816 532 134
0.10193825 -0.20551415 0.61941803 0.0017085918 525 133
0.1048623 -0.20549132 0.61885363 0.0016968312 537 136
0.10776112 -0.20542163 0.61812848 0.001750441 545 138
0.11115386 -0.20627223 0.62015021 0.0017281042 545 138
0.11393442 -0.20597219 0.61869037 0.0016721326 542 137
0.11591618 -0.2042795 0.61303169 0.00161306 574 145
0.11873398 -0.20410718 0.61191958 0.0016532543 553 140
0.12160965 -0.20404017 0.61110228 0.0016667409 548 139
0.12472064 -0.20436187 0.61142641 0.0017026584 534 135
0.12720384 -0.20366375 0.60867834 0.0018219312 535 135
0.1303706 -0.20406678 0.60919976 0.0018294483 539 136
0.13308051 -0.20375274 0.60755742 0.0017066766 526 133
0.13640715 -0.20437619 0.60868651 0.0018717229 507 128
0.13879029 -0.20358945 0.60559338 0.0017895097 514 130
0.14167298 -0.20355281 0.60471129 0.0017209711 524 132
0.14448662 -0.20342042 0.60352248 0.0017040847 530 134
0.14684699 -0.20266765 0.60047364 0.0016738839 543 137
0.14933574 -0.20211777 0.59800851 0.0017568843 545 138
0.15191151 -0.20170426 0.59592843 0.0016604143 551 139
0.15378697 -0.2003936 0.59118319 0.0016180819 570 144
0.15672094 -0.20048498 0.59055805 0.0016331668 564 143
0.1595034 -0.20038272 0.58934176 0.0016491448 566 143
0.16192164 -0.19983457 0.58679706 0.0016438875 560 142
0.16435267 -0.1993209 0.58433944 0.0016621044 549 139
0.1662356 -0.19817133 0.58000779 0.001683719 556 141
0.16891921 -0.19799879 0.57852548 0.00168839 545 138
0.17196199 -0.19824603 0.5782544 0.0017802323 496 125
0.17794518 -0.20182015 0.58765447 0.002308788 330 83
nan nan nan 0 226 57
0.21101432 -0.2318148 0.67259955 0.0041711698 178 45
0.21529254 -0.23286051 0.67441875 0.004617596 154 39
0.21892518 -0.23318675 0.6741423 0.0046005184 141 35
nan nan nan 0 172 43
0.22072367 -0.22815941 0.65721852 0.0028495085 250 63
0.22987634 -0.23416279 0.67329335 0.0024031487 316 80
0.23233125 -0.23326917 0.66952199 0.0031908036 238 60
0.23514266 -0.23275372 0.66685963 0.0040515722 188 47
0.23913626 -0.23340647 0.66756499 0.0036445209 181 45
nan nan nan 0 135 34
nan nan nan 0 137 34
nan nan nan 0 155 39
nan nan nan 0 172 43
nan nan nan 0 173 43
nan nan nan 0 173 43
0.27209863 -0.24196413 0.68469012 0.003961443 164 41
0.27386793 -0.24048269 0.67967999 0.0042105508 186 47
0.27260783 -0.23641084 0.66743881 0.0041901562 152 38
0.2746543 -0.23527107 0.66356736 0.0087651489 76 19
0.27895042 -0.23606256 0.6652239 0.0055248751 121 30
0.28299913 -0.23662835 0.66632509 0.004885314 144 36
0.28533506 -0.23576553 0.66349059 0.0043813158 147 37
0.28516272 -0.2328745 0.65504295 0.0045551467 151 38
0.28803742 -0.23250979 0.65379608 0.0041838419 171 43
0.29182294 -0.23288019 0.65470803 0.004376079 161 40
0.299723 -0.23648876 0.66481543 0.0041362052 152 38
0.29998353 -0.23405629 0.65803373 0.0027409317 299 75
0.3028782 -0.23371004 0.65720999 0.0023323107 372 94
0.31110138 -0.2374381 0.66794026 0.0029600058 241 61
0.30279493 -0.22860615 0.6434226 0.0038332315 176 44
0.29913914 -0.22343637 0.6292792 0.0052839969 120 30
0.3095156 -0.22874621 0.64473814 0.0059633008 101 25
0.30941898 -0.2262859 0.63838756 0.0078116367 77 19
0.32536703 -0.23548904 0.66504544 0.0076861987 71 18
0.32974479 -0.23621535 0.66787773 0.0070216386 94 23
0.33109292 -0.23477858 0.66467375 0.0060156998 109 27
0.33333221 -0.23399626 0.66339386 0.0055441321 108 27
nan nan nan 0 79 20
0.34942862 -0.24047302 0.68391162 0.0086268373 70 17
0.348355 -0.2374004 0.67634797 0.0083360011 75 19
0.35155231 -0.23726955 0.67722017 0.0081728231 70 17
0.35032278 -0.23418194 0.66970307 0.010711998 66 16
-0.39939564 -0.23301645 0.69606531 0.012374211 46 11
-0.38315755 -0.22544891 0.67234838 0.010591293 51 12
-0.37793335 -0.22428747 0.6674993 0.0081728669 67 17
-0.36531261 -0.21867828 0.64929479 0.0051204381 115 29
-0.36151281 -0.21829738 0.64657432 0.0053641889 128 32
-0.35868824 -0.21850386 0.64556527 0.0042870049 144 36
-0.35572633 -0.2186296 0.64431882 0.0059451251 114 28
-0.3521257 -0.21836151 0.64193732 0.0056512724 108 27
-0.34963694 -0.21878429 0.64162272 0.004926404 127 32
-0.35005665 -0.22105145 0.6467436 0.0058950428 104 26
nan nan nan 0 60 15
nan nan nan 0 55 13
nan nan nan 0 94 23
-0.33552086 -0.21992262 0.63790077 0.0031064516 218 55
-0.33202961 -0.21972132 0.63608277 0.004924838 140 35
nan nan nan 0 61 15
-0.33075356 -0.22315699 0.64372206 0.006324321 109 27
-0.32927248 -0.22435132 0.64611316 0.0036026801 189 47
nan nan nan 0 101 25
-0.32458857 -0.22561531 0.6478579 0.0077995923 90 22
-0.32140407 -0.22567506 0.64719856 0.0036531303 197 49
-0.31756923 -0.22527464 0.64530212 0.0042193723 154 39
-0.3329432 -0.23863366 0.68286484 0.015289119 47 11
-0.3296712 -0.23876855 0.68263674 0.0070443507 90 22
-0.31196123 -0.22833845 0.65231866 0.0026864423 308 78
-0.30817837 -0.2279879 0.65090972 0.0027783606 266 67
-0.30806357 -0.23037277 0.65739924 0.0033792246 195 49
-0.30577347 -0.23116535 0.65943485 0.0044821943 155 39
-0.29752946 -0.22742446 0.64863437 0.0049083116 128 32
-0.29499102 -0.22800982 0.65026861 0.0025502048 291 73
nan nan nan 0 124 31
nan nan nan 0 60 15
-0.29441476 -0.23547727 0.67203629 0.015588616 38 9
-0.28930271 -0.23410197 0.66845602 0.0045234342 157 39
-0.2814056 -0.23041366 0.65835351 0.0024800657 308 78
-0.28172052 -0.23344146 0.66752762 0.0024883642 301 76
-0.27910471 -0.23408489 0.66997677 0.0030771429 265 67
-0.27802026 -0.23604424 0.67628103 0.0034588387 233 59
-0.2738004 -0.23535728 0.67508429 0.0034681791 197 49
-0.26920253 -0.23432393 0.67296046 0.0029031518 260 65
-0.25943118 -0.22870347 0.65770394 0.0015161847 615 156
-0.25512224 -0.22781527 0.65609109 0.0012581607 856 217
-0.25299612 -0.22887856 0.66015309 0.0053662346 143 36
-0.25135067 -0.23041072 0.6656279 0.0034054818 201 51
-0.24534674 -0.22793491 0.65956217 0.0039765118 181 45
-0.24339961 -0.22921193 0.66438693 0.0057723513 100 25
-0.24409853 -0.23305054 0.67669344 0.0033444748 207 52
nan nan nan 0 102 25
-0.23568317 -0.23141983 0.67437416 0.0038204868 195 49
-0.23203887 -0.2311303 0.67476219 0.0032727197 210 53
nan nan nan 0 117 29
-0.22566238 -0.23146105 0.67822039 0.004160325 155 39
-0.2208281 -0.22992009 0.6749475 0.0026679437 275 69
-0.21606724 -0.22840951 0.67174482 0.0021235675 363 92
-0.21100065 -0.22652377 0.66741437 0.0024347571 311 78
nan nan nan 0 119 30
-0.20967089 -0.23232512 0.68696964 0.0058535673 104 26
-0.20310876 -0.22872671 0.67752117 0.0015915204 578 146
-0.19790433 -0.22656325 0.67227632 0.0013595669 830 210
-0.1974701 -0.22987992 0.68327981 0.0017105117 548 139
-0.19482864 -0.23069678 0.68685335 0.0023459056 354 89
-0.19090068 -0.22999232 0.68587595 0.0026073691 290 73
-0.18700773 -0.22930564 0.6849218 0.0019267843 437 110
-0.18136632 -0.22641146 0.677333 0.001316244 783 198
-0.17852208 -0.22696687 0.68002844 0.0017027827 529 134
-0.17470805 -0.22628699 0.67899704 0.0023198735 360 91
-0.17224964 -0.22737055 0.68323278 0.00235639 323 81
-0.16677195 -0.22443315 0.6753521 0.0019489783 462 117
-0.16209109 -0.22247261 0.67036426 0.0024029156 319 80
-0.15825978 -0.22162214 0.66868407 0.0019863357 421 106
-0.15525848 -0.22192284 0.67044896 0.0035465981 205 52
-0.1559418 -0.22761437 0.68849665 0.0058911131 125 31
-0.15210462 -0.22681116 0.6868906 0.0016275692 560 142
-0.1481937 -0.22586007 0.68480438 0.0014515772 678 172
-0.14472093 -0.22554885 0.68462795 0.0018804206 493 125
-0.14057516 -0.22415014 0.68111944 0.0023691261 324 82
-0.13956639 -0.22780563 0.69295102 0.0027749543 299 75
-0.13869791 -0.23187277 0.70603359 0.0022693407 344 87
-0.13170609 -0.22565077 0.68775553 0.0015215077 621 157
-0.12798502 -0.22485839 0.68598151 0.0012477502 862 218
-0.12419636 -0.22390276 0.68368113 0.0023842112 345 87
nan nan nan 0 256 64
-0.11610526 -0.2208561 0.67552382 0.0024660141 335 85
-0.1002778 -0.19615629 0.60045493 0.0033326419 228 57
-0.096303441 -0.19387791 0.59393561 0.0020767078 386 97
-0.092783384 -0.19240464 0.58985579 0.0016838656 589 149
-0.09075474 -0.19402869 0.59525394 0.0015755028 600 152
-0.088258646 -0.19472522 0.59779388 0.0016150729 581 147
-0.086003549 -0.19601703 0.60214806 0.0017555029 569 144
-0.083453692 -0.19670238 0.60462618 0.0017009563 555 140
-0.080831796 -0.19726039 0.60669869 0.0016227728 572 145
-0.078014418 -0.19736479 0.60736084 0.0016272643 564 143
-0.075641491 -0.19864425 0.61162561 0.001649695 559 141
-0.072704531 -0.19848518 0.61144733 0.0016502889 573 145
-0.069174178 -0.19662631 0.60601443 0.0016332733 593 150
-0.066296041 -0.19654123 0.60603106 0.0016358446 562 142
-0.063556403 -0.19687757 0.60733283 0.0017538375 533 135
-0.060777597 -0.19711848 0.60832697 0.0017406124 513 130
-0.057931159 -0.19715297 0.60867071 0.0018097257 488 123
-0.055038087 -0.19702414 0.60849661 0.0020105659 452 114
-0.051862147 -0.19581315 0.60496575 0.0019629137 454 115
-0.048881292 -0.19524121 0.60339463 0.0020430707 439 111
-0.045949001 -0.19480488 0.60222906 0.0020485222 413 104
-0.041885033 -0.18919951 0.58506608 0.0021595112 416 105
-0.038289756 -0.18507433 0.57246053 0.0020284718 448 113
-0.03522874 -0.18310457 0.56650591 0.0018764072 502 127
-0.032470524 -0.18251592 0.56481159 0.0016937403 533 135
-0.02983156 -0.18255261 0.56504142 0.0016625404 553 140
-0.027188553 -0.18256931 0.56519896 0.001636278 566 143
-0.024337241 -0.18104008 0.56055945 0.0015643494 611 155
-0.021610806 -0.18018244 0.55798829 0.0015955894 592 150
-0.018471604 -0.17517464 0.54255235 0.0018489574 513 130
-0.015693046 -0.17253619 0.53444242 0.0016605862 554 140
-0.013165838 -0.17218477 0.5334062 0.0016175637 580 147
-0.010713341 -0.17287458 0.53558654 0.0016335876 566 143
-0.0083743455 -0.17637603 0.54646939 0.0017021399 536 136
-0.0059156441 -0.17932506 0.55563253 0.0017920894 495 125
-0.0033927239 -0.18342315 0.56834733 0.0018431611 471 119
-0.00074174703 -0.18520407 0.57387316 0.0019415152 448 113
0.0019701964 -0.18787652 0.58215183 0.0019602403 434 110
0.0046979557 -0.18808119 0.58277392 0.0018880147 454 115
0.0074566174 -0.18891855 0.58534652 0.0018248465 479 121
0.010209769 -0.18920399 0.58619905 0.0019223415 494 125
0.012895788 -0.1883879 0.58362883 0.001671873 543 137
0.015930898 -0.19206567 0.59496987 0.0017902055 497 126
0.018808555 -0.19303352 0.59790456 0.0018074899 490 124
0.021660114 -0.19351758 0.59932977 0.0018126274 507 128
0.024499435 -0.19379383 0.60010076 0.0016980188 529 134
0.027341144 -0.19403021 0.60073721 0.0016955461 532 134
0.030374095 -0.19545314 0.60503548 0.0017582895 505 128
0.033717122 -0.19845842 0.61421835 0.0017900149 493 125
0.0368363 -0.19977731 0.61816782 0.0019219327 477 121
0.040040772 -0.20133282 0.62283587 0.0019129532 463 117
0.043097377 -0.20198406 0.62469256 0.0019069829 470 119
0.046996515 -0.20625001 0.6377126 0.0019623942 427 108
0.051047053 -0.21063052 0.65106642 0.0018678176 461 116
0.053743232 -0.20924369 0.64657712 0.0016967092 538 136
0.05651157 -0.20827086 0.64335608 0.0016294746 589 149
0.05952606 -0.20825791 0.64308733 0.0015944986 591 149
0.062311929 -0.20748493 0.6404587 0.0016941214 564 143
0.065189511 -0.20707446 0.63893604 0.001659342 551 139
0.068283871 -0.2073584 0.63954157 0.0016726361 550 139
0.071048856 -0.20666035 0.63710392 0.0016934484 535 135
0.07396771 -0.20644821 0.6361503 0.0017468723 562 142
0.076891787 -0.2062666 0.63527572 0.0017677477 547 138
0.079788156 -0.20602702 0.63420731 0.0016896712 557 141
0.082561329 -0.2054981 0.6322332 0.0016412262 560 142
0.085536629 -0.20549159 0.63185048 0.0016201034 568 144
0.087792441 -0.20381515 0.62631893 0.0017462356 536 136
0.090473011 -0.20320192 0.62404156 0.0016604087 550 139
0.093691409 -0.20379713 0.62545758 0.0017140476 541 137
0.096683055 -0.20387788 0.62527531 0.0017057579 533 135
0.098612249 -0.20177986 0.61839652 0.0016981902 546 138
0.10161959 -0.2019452 0.61843979 0.0016627626 546 138
0.10386958 -0.20063838 0.61395818 0.0018168921 541 137
0.10712748 -0.20129663 0.61547154 0.0016622314 552 140
0.10994388 -0.20111239 0.61438781 0.001656741 547 138
0.11293104 -0.20124193 0.61424237 0.0016887661 559 141
0.11606294 -0.20161641 0.61482209 0.0016545095 554 140
0.11854519 -0.20087168 0.61196882 0.001653646 556 141
0.1213544 -0.2007034 0.61085284 0.0016300376 569 144
0.12391074 -0.20013452 0.60849792 0.001700778 547 138
0.12600671 -0.19886516 0.60399681 0.0016655769 544 138
0.12914427 -0.19925964 0.60452968 0.001773612 547 138
0.13196713 -0.19916193 0.60354567 0.0016837632 544 138
0.13527398 -0.19978318 0.60471559 0.0017334442 530 134
0.1381813 -0.19980071 0.60403281 0.0017177149 525 133
0.14074083 -0.19932497 0.60183698 0.0018497356 508 128
0.14306989 -0.19854853 0.59871495 0.0018027852 525 133
0.14612637 -0.19879229 0.59864819 0.0016883069 536 136
0.14899041 -0.19876987 0.59775567 0.0016688484 554 140
0.15069097 -0.19722557 0.59227008 0.0016208898 563 142
0.15355283 -0.19723034 0.59142023 0.0016919381 562 142
0.15642525 -0.19724828 0.59058762 0.0016718992 553 140
0.15930927 -0.19727993 0.58977413 0.0016625632 547 138
0.16199613 -0.19707063 0.58821994 0.0016776182 540 137
0.16326258 -0.19517055 0.58160877 0.0016995819 556 141
0.16574587 -0.19476506 0.57944357 0.0016528036 558 141
0.16825357 -0.19440135 0.57738817 0.0016994809 577 146
0.17135537 -0.1947248 0.57735729 0.0017046185 534 135
0.17460281 -0.19520053 0.57775855 0.0021160343 404 102
nan nan nan 0 245 62
0.21099176 -0.22847898 0.67384911 0.0036232532 196 49
0.21522854 -0.22946595 0.67553335 0.0041393857 159 40
0.21593638 -0.22671773 0.66622305 0.0055282214 111 28
nan nan nan 0 148 37
nan nan nan 0 197 49
0.22998644 -0.23092842 0.67485756 0.0032398212 211 53
0.23300691 -0.23060572 0.67267948 0.003309988 239 60
0.23724277 -0.23147798 0.67399651 0.0032885845 206 52
0.24013297 -0.23103131 0.67148846 0.0031473727 230 58
0.24926856 -0.23652291 0.68623674 0.0041610613 157 39
0.25376907 -0.23752712 0.68796122 0.0030371649 228 57
0.25739554 -0.23769735 0.68729913 0.0019598952 424 107
0.25725529 -0.23443051 0.67675447 0.0015642948 603 153
0.26043862 -0.23423807 0.67514735 0.0018620364 459 116
0.27025282 -0.23993766 0.69055176 0.0031021368 229 58
0.27506009 -0.2411036 0.6929388 0.0043010116 176 44
0.27369034 -0.23689379 0.67995226 0.0034689009 192 48
0.27277213 -0.23317426 0.66847157 0.0042773373 151 38
nan nan nan 0 82 20
0.27083838 -0.22592373 0.64634579 0.004328311 147 37
0.28497288 -0.23487496 0.67138064 0.0041977884 154 39
0.28953052 -0.23581479 0.67357844 0.0040303459 166 42
0.2891537 -0.23276061 0.6644612 0.0041952734 152 38
0.28500593 -0.2267763 0.64708406 0.0046873996 145 36
0.28980827 -0.2279688 0.65028316 0.0043708696 145 36
0.29927307 -0.23276067 0.66383904 0.003879817 168 42
0.29437527 -0.22639965 0.64568055 0.0035785697 218 55
0.29569763 -0.22490995 0.6415084 0.0030480879 254 64
0.31242847 -0.23504482 0.67059255 0.0041825091 166 42
nan nan nan 0 129 32
0.31381473 -0.23104975 0.65982461 0.0049496274 127 32
0.31401122 -0.22875369 0.65371722 0.0052418374 118 29
0.31098363 -0.22418138 0.64117962 0.0078793596 88 22
0.32281578 -0.23030502 0.6593253 0.0076094056 88 22
0.32846344 -0.23193628 0.66471851 0.0057680379 121 30
0.3290635 -0.23000634 0.65998864 0.0043830262 158 40
0.32998383 -0.22833675 0.65607446 0.0047586355 133 33
nan nan nan 0 98 24
nan nan nan 0 64 16
0.34780839 -0.23364203 0.67448235 0.012382132 53 13
0.35285753 -0.23474856 0.67888671 0.011275185 48 12
0.36487889 -0.24042815 0.6966235 0.01050657 54 13
-0.39044502 -0.22449334 0.6798569 0.017056597 35 8
-0.38513637 -0.22332923 0.67502689 0.012109337 52 13
-0.37767264 -0.22088471 0.66613799 0.010750157 57 14
-0.3687031 -0.21750943 0.65436965 0.0081769712 67 17
-0.35419875 -0.21078137 0.63254064 0.0064344127 92 23
-0.35844406 -0.2151908 0.64414412 0.0072026863 85 21
-0.3562746 -0.21579336 0.64433169 0.0075636739 76 19
nan nan nan 0 60 15
nan nan nan 0 62 15
-0.34451485 -0.21439922 0.63558483 0.005775522 105 26
nan nan nan 0 114 28
nan nan nan 0 71 18
nan nan nan 0 53 13
nan nan nan 0 170 43
-0.33295497 -0.21714069 0.63707536 0.0028519395 263 66
-0.33107308 -0.218004 0.63846833 0.0049836324 124 31
-0.33234921 -0.22098404 0.64611155 0.0072232876 80 20
-0.33124378 -0.22242378 0.64930356 0.0041968236 166 42
-0.32774138 -0.2222666 0.64790469 0.0047812741 126 31
-0.32769158 -0.22447136 0.65346205 0.0041209967 152 38
-0.32410535 -0.22427386 0.6521005 0.0036302644 193 48
-0.32058361 -0.22411738 0.65094411 0.0057005393 114 28
-0.33535105 -0.23687626 0.68735248 0.011254629 51 12
-0.33318579 -0.23781697 0.68952453 0.011868749 53 13
-0.3141948 -0.2266406 0.65667999 0.002860609 248 62
-0.31024596 -0.22619142 0.65503305 0.0025004251 297 75
-0.30632085 -0.22574994 0.65350443 0.0027947898 261 66
-0.30553168 -0.22763525 0.65880573 0.0054654903 112 28
nan nan nan 0 71 18
nan nan nan 0 83 21
nan nan nan 0 86 21
nan nan nan 0 49 12
-0.29432866 -0.23199692 0.67210883 0.013730067 42 10
-0.28835636 -0.22995475 0.66661322 0.0035025903 201 51
nan nan nan 0 180 45
-0.28749382 -0.2347731 0.68171382 0.0050601792 126 31
nan nan nan 0 96 24
-0.28279215 -0.23661628 0.68855053 0.0044604111 140 35
-0.27412966 -0.23222548 0.67661655 0.0026269632 288 73
-0.26726159 -0.22926322 0.66888702 0.0023919202 321 81
-0.25954032 -0.22548403 0.65880984 0.0014127733 691 175
-0.2545675 -0.22402568 0.6555475 0.0011007665 1063 255
-0.251766 -0.22446503 0.657884 0.0023000331 339 86
-0.25206259 -0.22771481 0.66852015 0.0048934813 127 32
-0.24955431 -0.22848411 0.67193258 0.0025290688 293 74
nan nan nan 0 224 56
nan nan nan 0 421 106
nan nan nan 0 172 43
-0.23277889 -0.22525573 0.66725945 0.0067646843 88 22
-0.23192976 -0.22767374 0.67568105 0.0032911485 242 61
-0.22966962 -0.22875719 0.68016791 0.0037027807 181 45
-0.22597125 -0.22841901 0.68043381 0.0032039054 228 57
-0.21914144 -0.22485749 0.67107397 0.002997204 241 61
-0.21614282 -0.22517824 0.6732769 0.0029590405 241 61
-0.21106763 -0.22331193 0.66892296 0.0032973664 216 54
nan nan nan 0 168 42
-0.20839755 -0.22756787 0.68413192 0.0038773555 194 49
-0.202071 -0.22426036 0.67537695 0.0014281565 757 192
-0.19976781 -0.22538239 0.67993116 0.001573357 598 151
-0.19837423 -0.22758585 0.68774444 0.0020974625 424 107
-0.19403218 -0.22642422 0.68537188 0.0039721336 166 42
-0.19080459 -0.22654524 0.68685281 0.0052181911 118 29
-0.18714374 -0.226147 0.6867336 0.00344053 213 54
-0.18260501 -0.22465432 0.68325669 0.0016424605 578 146
-0.17805949 -0.22309814 0.67954648 0.0014962698 649 164
-0.17449264 -0.22273274 0.67942858 0.002054743 453 114
-0.17033309 -0.22158238 0.6768828 0.0027108341 294 74
-0.16584358 -0.21994948 0.67282468 0.0019791983 424 107
-0.16219449 -0.21938847 0.67200965 0.0026101752 285 72
-0.16118458 -0.22244692 0.68226457 0.0016979136 535 135
-0.15633388 -0.22022168 0.67629093 0.0023819972 366 92
-0.15564917 -0.22389495 0.68840986 0.0055859103 117 29
-0.15231681 -0.22383611 0.68904066 0.0020260857 398 100
-0.14802527 -0.222334 0.68519646 0.0011555997 1026 255
-0.1447504 -0.22232555 0.68592447 0.0012220558 898 227
-0.14229816 -0.22360942 0.69061804 0.0017157485 553 140
-0.13908744 -0.22373392 0.69171011 0.0022820493 346 87
-0.13535134 -0.2229989 0.69011801 0.0018705806 461 116
-0.13179022 -0.22252277 0.68929881 0.0015305938 657 166
-0.12789442 -0.22144297 0.68658119 0.0013262072 786 199
-0.12444548 -0.22110063 0.68612272 0.0016950079 535 135
nan nan nan 0 435 110
-0.11612792 -0.21769802 0.67668378 0.0024662151 337 85
nan nan nan 0 185 46
-0.095641024 -0.18975404 0.59072471 0.002187347 354 89
-0.092803515 -0.18965752 0.59084725 0.0016444792 563 142
-0.090388291 -0.19044478 0.59370685 0.0016792736 585 148
-0.088065356 -0.19148307 0.59733564 0.0016148678 573 145
-0.085233971 -0.19144784 0.59760058 0.0016194936 572 145
-0.082974181 -0.19273801 0.60198867 0.0015964271 582 147
-0.080196865 -0.19287474 0.60276055 0.0017012663 589 149
-0.07761918 -0.19351923 0.60510474 0.0016057643 580 147
-0.075468823 -0.1953187 0.61104888 0.0016444586 558 141
-0.072211511 -0.19428235 0.60810727 0.0016111905 581 147
-0.069113031 -0.19360557 0.60627371 0.0016247751 586 148
-0.066127934 -0.19320187 0.60527933 0.0017323934 563 142
-0.063367985 -0.19344927 0.60631049 0.0017701345 538 136
-0.060673002 -0.1939276 0.60805261 0.0017425604 529 134
-0.057693534 -0.19349892 0.60693759 0.001731722 513 130
-0.054561425 -0.1924873 0.60397929 0.0018093103 487 123
-0.051661093 -0.19222739 0.60336554 0.0018556284 468 118
-0.048739571 -0.191854 0.6023826 0.0020168475 435 110
-0.045098919 -0.18843007 0.59180593 0.0020765886 422 107
-0.041396338 -0.1842822 0.57893717 0.0019376929 435 110
-0.037697617 -0.17957166 0.56428224 0.0017478978 505 128
-0.035014238 -0.17935233 0.56372577 0.0017501769 527 133
-0.032454349 -0.17978132 0.56519681 0.0017630566 504 127
-0.029892573 -0.18027508 0.56686163 0.0018814623 495 125
-0.02700795 -0.1787284 0.56209981 0.0016552242 549 139
-0.02426387 -0.17787859 0.5595184 0.001566075 603 153
-0.021432223 -0.17610395 0.55401677 0.0016609472 551 139
-0.018225277 -0.17033391 0.53593338 0.0016660001 565 143
-0.015593274 -0.16895479 0.5316534 0.0016101577 577 146
-0.013119093 -0.16908705 0.53211999 0.0015795509 600 152
-0.010688939 -0.16998132 0.53497607 0.0017033481 555 140
-0.008373851 -0.1738098 0.54705894 0.0017242822 529 134
-0.005813376 -0.17367114 0.54664731 0.0017175723 529 134
-0.0033118392 -0.17645548 0.55542737 0.0017883027 501 127
-0.00073967391 -0.18201005 0.57291865 0.0019957446 452 114
0.0019562419 -0.1838425 0.57868445 0.0020392109 431 109
0.0047824359 -0.18868874 0.59392744 0.0021303575 417 105
0.0074890656 -0.18699099 0.58856213 0.0018925405 466 118
0.010198932 -0.18626422 0.58624381 0.0018279421 509 129
0.012908984 -0.18584783 0.58489287 0.0016837964 561 142
0.01581772 -0.18793762 0.59141916 0.001703004 532 134
0.018687172 -0.18900841 0.59472823 0.0018732456 514 130
0.021471215 -0.18904996 0.59478807 0.0018262709 534 135
0.024337247 -0.18972111 0.59681839 0.0016970726 530 134
0.027337693 -0.19119428 0.60136032 0.0018158311 530 134
0.030209223 -0.19157514 0.60245538 0.0017635565 529 134
0.033222258 -0.19271187 0.60591573 0.0017449408 522 132
0.036009077 -0.19246086 0.60500145 0.00167346 541 137
0.039142724 -0.19396508 0.60959256 0.0018209993 510 129
0.042073134 -0.19432624 0.61057872 0.0018156513 531 134
0.046115085 -0.19944891 0.62650943 0.0018594267 465 117
0.049391281 -0.20084511 0.6307168 0.0018568307 464 117
0.053468134 -0.2051558 0.64405876 0.0018304203 494 125
0.056461412 -0.20507054 0.64358312 0.0016349969 568 144
0.059386101 -0.20475732 0.64237922 0.0016145911 593 150
0.062236425 -0.20423038 0.6404919 0.0017367073 579 146
0.065010972 -0.2035147 0.63800037 0.0016520816 563 142
0.067825399 -0.20298135 0.63606769 0.0017533837 554 140
0.070854589 -0.20310862 0.63619101 0.0016689121 545 138
0.073322311 -0.2016812 0.63143164 0.0016265013 562 142
0.076539159 -0.20234525 0.63320613 0.0016421847 565 143
0.079098783 -0.20128706 0.62957633 0.0016525169 563 142
0.081814758 -0.20068878 0.62737173 0.0016625809 574 145
0.084629342 -0.2003656 0.62601244 0.0015779729 601 152
0.087300725 -0.19973657 0.62368256 0.0016483504 560 142
0.089969382 -0.1991424 0.62144673 0.0016140027 574 145
0.092853524 -0.19904764 0.62075347 0.0016415879 563 142
0.09568575 -0.19885078 0.61972451 0.0017932673 541 137
0.098231204 -0.19808733 0.61691368 0.0016319832 566 143
0.10090894 -0.19762687 0.61503059 0.0017841936 550 139
0.1035564 -0.19713463 0.61303174 0.0016816793 538 136
0.10636661 -0.19697052 0.61203563 0.0017216332 567 143
0.10947701 -0.1973563 0.6127277 0.0016832118 564 143
0.11236577 -0.1973329 0.61212832 0.0017146559 555 140
0.11498637 -0.1968516 0.61008918 0.0016740706 545 138
0.11778313 -0.19668813 0.60901594 0.0017708556 544 138
0.12008665 -0.19572856 0.60545963 0.0017625714 555 140
0.12278979 -0.19544998 0.60399204 0.0017101695 575 145
0.12576473 -0.1956069 0.6038484 0.0016390864 557 141
0.12857181 -0.19550158 0.60287273 0.0017474577 558 141
0.13158564 -0.19570836 0.60283655 0.00175465 562 142
0.13379882 -0.19474095 0.59916323 0.0016344201 562 142
0.13632981 -0.19426696 0.59699011 0.0016383652 562 142
0.139212 -0.19430257 0.5963614 0.0016947734 559 141
0.14229007 -0.19460469 0.59652609 0.0017249647 545 138
0.14491351 -0.19428536 0.59476215 0.0016550169 555 140
0.14717157 -0.19349802 0.59154665 0.0016652672 561 142
0.14996347 -0.19342907 0.59050775 0.0016551616 577 146
0.15200379 -0.19241132 0.58655387 0.0016408996 562 142
0.15596893 -0.19382274 0.58998036 0.0016225027 569 144
0.15718915 -0.19183362 0.58303624 0.0016882471 584 148
0.15974118 -0.1915113 0.58114684 0.0016102722 578 146
0.16164707 -0.19043891 0.57696694 0.0016281393 595 150
0.1637354 -0.18961439 0.57352704 0.0015736552 596 151
0.16610643 -0.18913929 0.57113123 0.0015882237 599 151
0.16912568 -0.18940584 0.5709579 0.0017030885 542 137
0.17128465 -0.18871593 0.56788689 0.0017503308 511 129
nan nan nan 0 354 89
nan nan nan 0 233 59
nan nan nan 0 171 43
0.20926395 -0.21652819 0.64687854 0.005488331 106 26
0.21634193 -0.22049694 0.65751261 0.0050092433 148 37
0.22652389 -0.22746542 0.67702687 0.0033835117 198 50
0.23053776 -0.22812746 0.67772788 0.0033528104 207 52
0.23337081 -0.2276188 0.674954 0.0038004846 203 51
0.23735856 -0.22823481 0.67552292 0.0033447177 213 54
0.24076089 -0.22827862 0.67440802 0.0032955867 211 53
0.24852954 -0.23240425 0.68534833 0.0033079241 205 52
0.24913894 -0.22981398 0.6764999 0.002032202 402 102
0.25204086 -0.22937946 0.67404312 0.0016296803 563 142
0.25560164 -0.22954817 0.67339623 0.0017242383 520 131
0.25996983 -0.23042805 0.67487252 0.0023824074 327 82
0.27007613 -0.23630595 0.69100416 0.0046569686 159 40
0.27567208 -0.2381383 0.69532669 0.0045145005 160 40
0.27820671 -0.2373133 0.69194794 0.00416973 171 43
0.2767241 -0.23312445 0.67884821 0.0053991564 142 36
nan nan nan 0 70 17
0.27131084 -0.22303812 0.6479947 0.0055242577 124 31
0.28027046 -0.22765167 0.66075999 0.0042029913 154 39
0.28417519 -0.22809887 0.6615026 0.003958337 165 41
0.29292265 -0.23237744 0.67343462 0.0047365343 154 39
0.29561961 -0.23181279 0.67141593 0.0042521087 161 40
0.29714352 -0.2303516 0.66689813 0.0038228144 198 50
0.29960251 -0.22964008 0.66464913 0.0044947881 156 39
0.29567385 -0.22410297 0.64853328 0.0070842877 85 21
0.29290181 -0.21955492 0.63537711 0.0058625247 113 28
0.30518997 -0.22627188 0.65491754 0.004754331 131 33
0.30589527 -0.22434887 0.64954823 0.0053717359 124 31
0.31318572 -0.22724503 0.65822792 0.0045565292 138 35
0.31522855 -0.22631262 0.65591478 0.0048348866 142 36
0.3263939 -0.23188061 0.67254424 0.0066165705 90 22
0.32517278 -0.22862472 0.66367793 0.0050657033 120 30
0.32595301 -0.22682816 0.65912426 0.00413772 169 42
0.32662347 -0.22499238 0.65453219 0.0031145115 236 59
0.32941833 -0.22464214 0.65433824 0.003616849 202 51
0.30898389 -0.20861523 0.60849679 0.0068966728 84 21
0.30945516 -0.2068795 0.60434103 0.010174057 63 15
0.32995147 -0.21843451 0.63912785 0.0094465977 74 18
0.3352448 -0.21979912 0.6442312 0.01007061 57 14
0.33694679 -0.21880546 0.64249349 0.00999068 57 14
nan nan nan 0 35 8
-0.38483769 -0.21987459 0.67364788 0.014110223 41 10
-0.37449145 -0.21580343 0.65960461 0.010196231 58 14
nan nan nan 0 81 20
nan nan nan 0 46 11
nan nan nan 0 61 15
nan nan nan 0 102 25
-0.32018557 -0.19279987 0.58197755 0.0051358016 117 29
nan nan nan 0 55 13
-0.34952837 -0.21432069 0.6439299 0.005543441 122 30
-0.34130242 -0.21120957 0.63318092 0.0034671875 194 49
nan nan nan 0 115 29
nan nan nan 0 35 8
nan nan nan 0 104 26
-0.33366382 -0.21440315 0.63768494 0.0028655101 261 66
-0.33071125 -0.21456355 0.63706177 0.0021786706 353 89
-0.33367276 -0.21860164 0.64800435 0.0027752644 251 63
-0.32635742 -0.21592024 0.63909703 0.0025010088 301 76
-0.32704535 -0.21853313 0.64593971 0.0054837163 112 28
-0.32552576 -0.21970876 0.64860052 0.0049174577 124 31
-0.32418665 -0.2210314 0.65177101 0.0049004811 154 39
-0.29295883 -0.20179351 0.59445244 0.0072069461 90 22
-0.28596628 -0.19902289 0.58578914 0.0099549768 68 17
nan nan nan 0 38 9
-0.31997767 -0.22741795 0.66850334 0.0036677453 186 47
-0.31717801 -0.22784494 0.66947311 0.0028340819 297 75
-0.31171682 -0.22634853 0.66489094 0.0028415138 278 70
-0.30747572 -0.225715 0.66294396 0.002826235 250 63
-0.30384353 -0.22551939 0.66238278 0.0043473886 152 38
nan nan nan 0 75 19
nan nan nan 0 72 18
nan nan nan 0 78 19
-0.29298535 -0.22754222 0.6693657 0.0040524029 156 39
-0.28582948 -0.22458784 0.6611675 0.0026756714 288 73
nan nan nan 0 82 20
-0.29209486 -0.23502284 0.69319379 0.0096679181 64 16
nan nan nan 0 124 31
nan nan nan 0 103 26
-0.28571314 -0.23847915 0.70600736 0.0079764156 90 22
-0.28296068 -0.23916098 0.70904845 0.0047442154 145 36
-0.26357237 -0.22561973 0.66992664 0.0020566466 387 98
-0.25458524 -0.22074683 0.65651238 0.0011104039 1091 255
-0.25190532 -0.22128667 0.65922177 0.0016265212 591 149
-0.25499004 -0.2269721 0.6773324 0.0028652984 244 61
-0.24577418 -0.2217142 0.66282254 0.0018839074 452 114
nan nan nan 0 147 37
-0.23840486 -0.22101749 0.66317314 0.0028645785 248 62
nan nan nan 0 190 48
-0.23055601 -0.21982399 0.66208071 0.01029918 59 14
-0.23275106 -0.2251202 0.67931992 0.0043162173 151 38
-0.2255899 -0.22138958 0.66933137 0.0018128683 491 124
-0.22792928 -0.22701026 0.68762404 0.0027364753 282 71
-0.22093701 -0.22336631 0.6778596 0.0039434317 165 41
-0.21473788 -0.22042488 0.67018092 0.0045097554 166 42
nan nan nan 0 132 33
nan nan nan 0 184 46
-0.20611118 -0.22176151 0.67792934 0.0018144074 537 136
-0.20181617 -0.22068402 0.67582244 0.0014531969 682 173
-0.2021044 -0.22466561 0.68920302 0.002998603 234 59
-0.19559836 -0.22110143 0.67941552 0.0019669884 423 107
nan nan nan 0 213 54
-0.19026513 -0.22258283 0.68620265 0.0038969677 164 41
-0.1869925 -0.22264147 0.68746305 0.0038322164 195 49
-0.18381955 -0.22282301 0.68907773 0.0045670713 143 36
-0.17826326 -0.2200691 0.68157548 0.0019662362 425 107
-0.17097543 -0.21503396 0.66694582 0.0017517485 506 128
-0.16829398 -0.21571043 0.66998482 0.0026300508 286 72
-0.16866452 -0.22040142 0.68548864 0.0019388924 424 107
-0.16501711 -0.2199242 0.68490881 0.0020241363 418 106
