# .PCD v0.7 - Point Cloud Data file format
VERSION 0.7
FIELDS x y z noise intensity gray
SIZE 4 4 4 4 2 1
TYPE F F F F U U
COUNT 1 1 1 1 1 1
WIDTH 893
HEIGHT 1
VIEWPOINT 0 0 0 1 0 0 0
POINTS 893
DATA ascii
-0.094742432 -0.13300674 0.33984214 0.0014159787 726 180
-0.093123607 -0.13309921 0.34059498 0.0015015635 658 163
-0.093336351 -0.13586114 0.34818733 0.0019339746 444 110
-0.089859173 -0.13325484 0.34201884 0.0017782929 503 125
-0.086379178 -0.13054459 0.33555847 0.0015399213 663 164
-0.084390715 -0.13002674 0.3347156 0.0013561145 764 190
-0.0833259 -0.13093971 0.33755109 0.0015961741 615 153
-0.08176969 -0.13110188 0.33844757 0.0016932668 546 135
-0.079574056 -0.13022435 0.33664957 0.0017893179 508 126
-0.077593066 -0.12966837 0.3356691 0.0017124312 536 133
-0.075646088 -0.12914644 0.33476409 0.0017212412 574 142
-0.073886834 -0.12892902 0.33463642 0.0017609494 545 135
-0.072305277 -0.12901886 0.33529601 0.0017336513 529 131
-0.070486434 -0.12867968 0.33482984 0.0017441225 525 130
-0.070805661 -0.13232002 0.34471852 0.0019058717 468 116
-0.068155617 -0.13045341 0.3402555 0.0018658411 498 123
-0.06587778 -0.12922421 0.33743486 0.0015826958 607 151
-0.065181226 -0.1311132 0.34274745 0.0016538752 564 140
-0.065413497 -0.13501807 0.35333526 0.0017636014 507 126
-0.064037815 -0.13572446 0.35555425 0.0017806072 495 123
-0.059510406 -0.12960577 0.33986798 0.0015548622 657 163
-0.059098363 -0.13235697 0.34742123 0.0016624887 563 140
-0.058907494 -0.1357785 0.3567383 0.0018002935 497 123
-0.059650708 -0.14162335 0.37243325 0.0018588176 474 117
-0.060994465 -0.14930041 0.39296621 0.0019141503 455 113
-0.059670232 -0.15072894 0.39706117 0.0019167487 448 111
-0.058129743 -0.15168752 0.39991096 0.0018772777 498 123
-0.05462813 -0.1474193 0.38896152 0.0016461408 564 140
-0.054573756 -0.15248092 0.40261793 0.0019446954 451 112
-0.052267671 -0.15139163 0.40002888 0.0018879601 488 121
-0.049961839 -0.15022019 0.39720652 0.0017427074 518 128
-0.048110135 -0.1503755 0.39787877 0.0016909338 577 143
-0.046315294 -0.1507287 0.39906377 0.0016708113 549 136
-0.044548832 -0.15120855 0.40057391 0.0017896437 499 124
-0.042765856 -0.15167291 0.40203312 0.0017947843 516 128
-0.041187692 -0.15294145 0.40561518 0.001766809 505 125
-0.039470267 -0.15379247 0.40808171 0.0017922529 495 123
-0.037588865 -0.15405975 0.40898964 0.0016940407 540 134
-0.035571255 -0.15376748 0.40840101 0.0015421743 623 154
-0.033549115 -0.15342066 0.40765598 0.0018556954 505 125
-0.031315207 -0.15200329 0.40405369 0.0017792208 498 123
-0.029206049 -0.15104553 0.4016602 0.0017607744 506 125
-0.027329229 -0.15123938 0.40231803 0.0018492484 470 116
-0.025414677 -0.15123788 0.40244615 0.0019030849 455 113
-0.023559628 -0.15161905 0.4035829 0.0018115521 485 120
-0.02118152 -0.14840315 0.39513275 0.0017717567 528 131
-0.019139867 -0.14714803 0.39189044 0.0016648645 592 147
-0.017036201 -0.1450942 0.38650933 0.0014939691 670 166
-0.015154528 -0.14466314 0.38544017 0.0014020288 727 180
-0.013341344 -0.14485721 0.3860274 0.0014592616 705 175
-0.011532174 -0.14516371 0.38690528 0.0014028072 732 182
-0.0097385477 -0.1458191 0.38870424 0.0014790099 700 174
-0.0078668064 -0.14533783 0.3874642 0.0014970818 697 173
-0.0060363528 -0.1455584 0.38808626 0.0014849458 695 172
-0.0042320709 -0.14688107 0.39163792 0.0015821487 599 149
-0.002406277 -0.14894474 0.39715675 0.0018413726 478 118
-0.00052004721 -0.14866593 0.39642045 0.0018790452 481 119
0.0013224188 -0.14437965 0.38498896 0.0015717915 608 151
0.0030833289 -0.14132868 0.37684289 0.0015059939 656 163
0.0049060709 -0.14231165 0.37944439 0.0015073105 649 161
0.0067173447 -0.14252333 0.37998044 0.0015231973 664 165
0.008490161 -0.14200215 0.37855387 0.001553087 621 154
0.010304694 -0.14223893 0.37913907 0.0015603966 634 157
0.012165282 -0.14294645 0.38096982 0.0016354567 586 145
0.014017984 -0.14339009 0.3820878 0.0016781876 570 141
0.01581398 -0.14321846 0.38155702 0.0017124999 537 133
0.017637353 -0.14330457 0.38170391 0.0017419792 523 130
0.019785143 -0.14576474 0.38816348 0.0018946729 457 113
0.021975111 -0.14808944 0.39424959 0.0019864005 429 106
0.023366915 -0.14509267 0.3861596 0.0018894488 457 113
0.025108336 -0.14454532 0.38458189 0.001850004 479 119
0.026896944 -0.14432554 0.38386673 0.0019832267 456 113
0.028305393 -0.14222354 0.37813786 0.0018761982 497 123
0.029698422 -0.14030011 0.37287796 0.0017207114 540 134
0.031172028 -0.13895288 0.36914334 0.001594051 599 149
0.032786075 -0.13834214 0.36735767 0.0015897922 633 157
0.034473408 -0.13808692 0.36650735 0.0015239537 670 166
0.036169741 -0.13789062 0.36580405 0.0015739166 643 159
0.039076593 -0.14211485 0.37681201 0.0016522075 582 144
0.041238077 -0.14337578 0.37994483 0.0019075671 454 112
0.043350678 -0.14436765 0.38235033 0.0020803574 420 104
0.044134669 -0.14103368 0.37329209 0.0017684966 507 126
0.046464957 -0.14270805 0.37748176 0.0019120149 464 115
0.049435548 -0.14615008 0.38632712 0.0021459833 379 94
0.051307887 -0.14621408 0.38622537 0.0021925543 370 92
0.052329604 -0.14393395 0.3799243 0.0020943545 394 98
0.052321881 -0.13907103 0.36680824 0.0019238259 447 111
0.052792449 -0.13575457 0.35777655 0.0017355918 541 134
0.053422172 -0.13304354 0.35034215 0.0016161413 616 153
0.055121567 -0.13308075 0.35013938 0.0015357677 667 165
0.055869877 -0.13088763 0.34406251 0.0013936774 734 182
0.057400849 -0.13060157 0.3429935 0.0014102946 752 187
0.058617108 -0.12963551 0.34013069 0.0013387921 785 195
0.060398236 -0.12993731 0.34058505 0.0013671841 760 189
0.062013183 -0.12987505 0.34007356 0.0013307576 795 197
0.06354358 -0.12964351 0.33910853 0.001329441 807 200
0.065349929 -0.12997247 0.33959833 0.0013444785 782 194
0.066551693 -0.12911235 0.33697194 0.0013583389 809 201
0.067793258 -0.12836884 0.33464384 0.0012392149 896 222
0.06937886 -0.12829633 0.33405674 0.0012775899 860 213
0.071621008 -0.12941343 0.33655354 0.0013890953 772 192
0.072824702 -0.12864618 0.33413851 0.0013752584 752 187
0.076172195 -0.13161668 0.34141448 0.0015067864 659 163
0.078676 -0.13303345 0.34463537 0.0014874022 666 165
0.078475215 -0.12991348 0.33609998 0.0013897663 782 194
0.079950131 -0.12963872 0.33492863 0.0013503541 806 200
0.08166755 -0.12976031 0.33477336 0.0012854378 843 209
0.083567955 -0.13016212 0.33533162 0.0013129564 845 210
0.085501887 -0.13059962 0.33597174 0.0012752641 853 212
0.086728849 -0.12996113 0.33383852 0.001275369 850 211
0.088198237 -0.12970293 0.33268031 0.0012652205 860 213
0.089686319 -0.12948111 0.33161324 0.001258808 866 215
0.091312423 -0.129463 0.33106557 0.0012345815 900 223
0.093038671 -0.12958498 0.33087394 0.0012829297 869 216
0.095059723 -0.13010623 0.33169875 0.0012846295 863 214
0.096508794 -0.12984021 0.3305164 0.0013346833 784 195
0.098465979 -0.13025524 0.33106962 0.0013844714 745 185
0.10152288 -0.13208739 0.33522034 0.0014513583 686 170
0.10345867 -0.13242517 0.33557624 0.0016234979 577 143
0.10665777 -0.13434345 0.33993673 0.0017856156 509 126
0.10898323 -0.13511835 0.34140426 0.0018150456 482 119
0.11124417 -0.13579057 0.34261921 0.0018622123 466 115
0.11500079 -0.13824025 0.34832263 0.0019219642 441 109
0.11791766 -0.13962217 0.35133955 0.0021509419 379 94
0.12727764 -0.1484797 0.37315425 0.0026943383 277 68
0.12766267 -0.14676179 0.36839122 0.0025193661 320 79
0.12852551 -0.14563461 0.36514446 0.0021585182 374 93
0.12988767 -0.14509705 0.36340806 0.0022102648 379 94
nan nan nan 0 274 68
nan nan nan 0 241 59
0.1430507 -0.15329869 0.38291258 0.0020120202 409 101
0.14474562 -0.15303919 0.38199094 0.0019098253 450 111
0.14865787 -0.15509996 0.38689697 0.0021405201 372 92
0.15159278 -0.15610059 0.38919494 0.0023762025 342 85
0.15541099 -0.15797335 0.39370674 0.0025042435 301 74
0.1623726 -0.16295318 0.40600091 0.0028378265 266 66
0.17120096 -0.16965801 0.42263308 0.003162116 221 54
0.17487392 -0.17115106 0.42632848 0.0032506983 205 51
0.17723809 -0.1713423 0.42683136 0.0033702538 207 51
0.17851613 -0.17049164 0.42478889 0.0030125659 235 58
0.17644942 -0.16650502 0.41498026 0.0028107953 273 67
0.17824976 -0.16621858 0.41443971 0.0027293665 287 71
0.18162669 -0.16739187 0.41758886 0.0028055983 253 62
0.18625486 -0.16967794 0.42356822 0.0036750881 191 47
0.19327144 -0.17406291 0.4348484 0.0047858725 126 31
0.20123924 -0.17919612 0.44806695 0.0045637586 135 33
0.20393856 -0.17957577 0.44946223 0.0036897645 192 47
0.20572977 -0.17915623 0.44890639 0.0032756655 204 50
0.2075752 -0.17879255 0.44853643 0.0035786971 183 45
0.20931284 -0.17834488 0.44800031 0.0040481677 169 42
0.21242212 -0.17906299 0.4504396 0.0047189808 138 34
0.21559261 -0.17981701 0.45301947 0.0046230149 131 32
0.21842174 -0.1802735 0.45489845 0.0042774538 160 39
0.22027925 -0.17992695 0.45479402 0.0036625152 174 43
0.22147353 -0.17905128 0.45338821 0.0039809984 171 42
0.22291416 -0.17839049 0.45255947 0.0040428424 159 39
0.22524008 -0.17844434 0.45357931 0.0042053922 143 35
0.22675821 -0.17786351 0.45302048 0.0044882512 135 33
0.22765346 -0.17681032 0.45128536 0.0047925496 125 31
0.22881368 -0.17598142 0.45014617 0.0053886501 128 31
nan nan nan 0 118 29
nan nan nan 0 109 27
nan nan nan 0 37 9
nan nan nan 0 39 9
nan nan nan 0 19 4
nan nan nan 0 18 4
nan nan nan 0 23 5
nan nan nan 0 24 5
-0.27629527 -0.19195883 0.50707179 0.017140506 29 7
-0.27199736 -0.19067107 0.50282413 0.019755937 24 5
nan nan nan 0 25 6
nan nan nan 0 20 4
-0.27826545 -0.20046966 0.52519292 0.019434266 24 5
-0.27296048 -0.1984809 0.51874858 0.019203173 27 6
-0.28810698 -0.21146579 0.55137509 0.020840399 29 7
-0.29198563 -0.21634838 0.56278473 0.021453807 27 6
nan nan nan 0 24 5
-0.279302 -0.21095808 0.54627883 0.022753781 25 6
nan nan nan 0 24 5
-0.20429373 -0.15735118 0.40572494 0.012237976 42 10
-0.2034529 -0.15826626 0.40725875 0.013718867 39 9
-0.19485752 -0.15310673 0.39321634 0.0076456419 75 18
-0.19373095 -0.15377049 0.39418617 0.0054163709 110 27
-0.19364628 -0.15528333 0.39735821 0.0048062848 136 33
-0.18974313 -0.15373383 0.39273068 0.0042357771 166 41
-0.18634301 -0.15256363 0.38912129 0.003674845 190 47
-0.18432969 -0.15251602 0.3884187 0.0032564332 210 52
-0.18267116 -0.15276414 0.38850808 0.0030486605 232 57
-0.18085955 -0.15288821 0.3883214 0.0032250832 232 57
-0.1779775 -0.15210022 0.38586178 0.0026666841 290 72
-0.17338684 -0.14981839 0.37966374 0.0024046451 313 77
-0.17199482 -0.15028027 0.38046649 0.0025135428 302 75
-0.17075829 -0.15088998 0.38168478 0.0025072154 299 74
-0.16879421 -0.15086341 0.38133681 0.0025717341 296 73
-0.16700159 -0.15099126 0.38142428 0.0026908449 273 67
-0.1640114 -0.15002663 0.37879872 0.0025661499 294 73
-0.161422 -0.14941011 0.37709972 0.0023896836 319 79
-0.15986715 -0.14974782 0.37785533 0.0027394157 274 68
-0.15789665 -0.14969969 0.37768307 0.0024971783 304 75
-0.15529701 -0.14904653 0.37603027 0.0023920464 347 86
-0.15348226 -0.14913979 0.37630594 0.0023904201 321 79
-0.15190275 -0.14946689 0.37721649 0.0027639582 264 65
-0.14953552 -0.14901732 0.37621078 0.0024667166 302 75
-0.1451515 -0.14652032 0.37007579 0.0022019441 376 93
-0.14219488 -0.14541762 0.36749899 0.0020549903 432 107
-0.13952546 -0.14458323 0.36563665 0.0020541109 411 102
-0.13987786 -0.14689985 0.37178355 0.0023309761 330 82
-0.13427348 -0.14293855 0.36207396 0.0019848498 422 104
-0.13258699 -0.14309604 0.36282265 0.0019436089 452 112
-0.13118829 -0.14357291 0.36441416 0.0019863572 422 104
-0.13181607 -0.14631273 0.37178779 0.0024353797 311 77
-0.1292772 -0.14556597 0.37033492 0.0025074061 315 78
-0.12327585 -0.14084151 0.35876974 0.0019039991 450 111
-0.12112918 -0.14044599 0.35823694 0.0017921939 512 127
-0.11937904 -0.14050521 0.3588821 0.0017004402 535 133
-0.11981715 -0.14318123 0.36623815 0.0023104611 358 89
-0.11716662 -0.14219216 0.36423999 0.0024410894 339 84
-0.11386152 -0.1403649 0.36009631 0.0023648175 355 88
-0.1105072 -0.13841729 0.35563928 0.0021447642 387 96
-0.1071533 -0.13640667 0.35101235 0.0019531581 434 107
-0.10520341 -0.13614629 0.35088581 0.0019768877 430 106
-0.1022932 -0.13461338 0.34747607 0.0019134915 473 117
-0.099711493 -0.13346758 0.34505656 0.0017222781 563 140
-0.096199259 -0.1310145 0.33924294 0.0014486597 691 171
-0.094872512 -0.13150352 0.34103835 0.0013870357 734 182
-0.093186423 -0.13150316 0.34156385 0.0015960345 629 156
-0.094258256 -0.13546643 0.35239628 0.0019591618 434 107
-0.088446364 -0.1294996 0.33738399 0.0016666648 557 138
-0.086238235 -0.12868191 0.33575431 0.0013997984 726 180
-0.084274009 -0.12820338 0.33499765 0.0014123404 760 189
-0.083532766 -0.12960328 0.33914542 0.0016883886 545 135
-0.081859306 -0.12958431 0.3395772 0.0018009164 493 122
-0.079125635 -0.12785147 0.33550242 0.0016650701 555 138
-0.07702855 -0.12709564 0.33397329 0.0016258535 576 143
-0.074745849 -0.12599429 0.33151996 0.001610038 593 147
-0.073459707 -0.12656122 0.33344442 0.0016344225 590 146
-0.071730651 -0.12637344 0.33337152 0.0016827716 586 145
-0.069869623 -0.12593912 0.33263564 0.0015805308 606 150
-0.068504952 -0.12640008 0.33425385 0.0016290329 574 142
-0.068201356 -0.12888864 0.34123212 0.0017340197 532 132
-0.066214643 -0.12824099 0.33990183 0.0015191606 636 158
-0.063879199 -0.12686774 0.3366313 0.0014958243 697 173
-0.06501095 -0.13248871 0.35191995 0.0016306447 578 143
-0.063685 -0.13326822 0.35435501 0.0018236616 516 128
-0.05936994 -0.12766324 0.33978951 0.0015586517 654 162
-0.057678334 -0.1275416 0.33979225 0.0015699101 651 161
-0.058363814 -0.13282259 0.3541902 0.0017683813 539 134
-0.061681401 -0.14459105 0.38591748 0.0017487356 522 129
-0.060101006 -0.14525135 0.38801417 0.0018316308 491 122
-0.060063627 -0.14980225 0.40050322 0.0019250815 443 110
-0.058208201 -0.14996965 0.40127066 0.0017431165 518 128
-0.054410797 -0.14497428 0.3882018 0.0015787153 601 149
-0.05429168 -0.14977273 0.40134555 0.001868136 465 115
-0.051632587 -0.14765918 0.39596048 0.0017839458 523 130
-0.04973666 -0.1476503 0.39620355 0.0016795266 586 145
-0.048001938 -0.14813824 0.39776888 0.0015908717 592 147
-0.046052251 -0.14797564 0.3975766 0.0016890026 570 141
-0.043853432 -0.14696416 0.39509028 0.001755111 532 132
-0.042442784 -0.1486218 0.3997694 0.0017669656 527 131
-0.040916737 -0.15001221 0.403723 0.0017515586 516 128
-0.039497402 -0.15195026 0.40914404 0.001824619 509 126
-0.037452828 -0.15155926 0.40828505 0.0016128293 596 148
-0.035433073 -0.15123139 0.40758437 0.0016211199 616 153
-0.033404745 -0.15082689 0.40666559 0.0017221069 526 130
-0.031155182 -0.14931241 0.40274158 0.0016917411 544 135
-0.02901784 -0.14817265 0.39981532 0.0017453847 530 131
-0.027108677 -0.14811999 0.39981118 0.0017153691 535 133
-0.024916027 -0.14639378 0.39527819 0.001759541 522 129
-0.022882411 -0.14539684 0.39270252 0.0017016041 551 137
-0.02097298 -0.14508215 0.39195892 0.0017259537 546 135
-0.018980552 -0.1440762 0.38933754 0.0016098558 584 145
-0.017043669 -0.14332047 0.38738191 0.0015632887 621 154
-0.015163741 -0.14291891 0.38637385 0.001469856 680 169
-0.013351134 -0.14312865 0.38700938 0.0014601242 684 170
-0.011551944 -0.14357202 0.38826776 0.0014673726 709 176
-0.0097192284 -0.14368777 0.38863167 0.0014366817 697 173
-0.0078837201 -0.14380674 0.38899544 0.0014772395 692 172
-0.0060149543 -0.14320654 0.38740492 0.0014444295 697 173
-0.0042203856 -0.14462149 0.39125711 0.0016600302 587 146
-0.0024132414 -0.14748512 0.39902025 0.0018711461 464 115
-0.00050307671 -0.14199427 0.38417149 0.0017415993 527 131
0.0013246713 -0.14279498 0.38633594 0.0016905525 549 136
0.0031828051 -0.14404173 0.38969833 0.0017944966 526 130
0.0050703455 -0.14521518 0.39285344 0.0018312762 497 123
0.0069741327 -0.14609872 0.39521489 0.0018526742 485 120
0.0088256542 -0.14574505 0.39422056 0.002030957 448 111
0.010874843 -0.1482089 0.40083763 0.0021188355 419 104
0.012773637 -0.14819503 0.40074366 0.0020407452 413 102
0.014716101 -0.14862581 0.40184256 0.0022495878 385 95
0.016683817 -0.14918359 0.40327522 0.0023208342 359 89
0.018595742 -0.1491791 0.40317816 0.0023729277 360 89
0.020269319 -0.14744169 0.39838913 0.0022050512 362 90
0.021899128 -0.14570943 0.39360702 0.0021204185 386 96
0.023427043 -0.14362478 0.38786623 0.0021297578 413 102
0.024847785 -0.14123479 0.381295 0.0019070187 453 112
0.025942242 -0.13744077 0.3709293 0.0017213383 529 131
0.027572995 -0.13678992 0.3690412 0.0016070103 590 146
0.029175011 -0.13608287 0.36699361 0.0016586245 596 148
0.030853262 -0.13579112 0.36605766 0.0015441636 659 163
0.032617912 -0.13589048 0.3661668 0.0014551525 688 171
0.034311049 -0.13569698 0.36547723 0.0014180979 714 177
0.036086135 -0.13583057 0.365659 0.0015471166 664 165
0.039039548 -0.14018302 0.37718195 0.0017757613 505 125
0.040905952 -0.14042093 0.37761745 0.0018203377 481 119
0.041950334 -0.13793589 0.37072337 0.0016683033 554 137
0.042968296 -0.13556853 0.36414269 0.0015126857 641 159
0.047345392 -0.14357157 0.38539726 0.0020084938 423 105
0.049201615 -0.14361736 0.38526681 0.002040402 412 102
0.051049016 -0.143635 0.38504949 0.0020894958 398 99
0.051490374 -0.139833 0.37458837 0.0020463623 424 105
0.052004185 -0.13647698 0.36532462 0.0017452298 526 130
0.051778078 -0.13146085 0.35162297 0.0015271701 639 158
0.052652478 -0.12946697 0.34600893 0.0014210002 710 176
0.054129932 -0.12903248 0.34455678 0.001426746 751 186
0.055411596 -0.12817088 0.3419562 0.0013737743 790 196
0.056983635 -0.12801123 0.34121978 0.0013346449 795 197
0.058508057 -0.12775654 0.34021994 0.0013206607 807 200
0.059969317 -0.12738153 0.33889028 0.001300074 821 204
0.061454888 -0.12707673 0.33773798 0.0012863326 842 209
0.06316793 -0.12724586 0.33783445 0.0012975063 847 210
0.064991571 -0.12762363 0.33847225 0.0012641882 865 215
0.065983549 -0.12638986 0.33482739 0.0012477729 903 224
0.067669854 -0.1265133 0.33477029 0.0012002642 943 234
0.069009341 -0.12599774 0.33301255 0.0012243036 940 233
0.070792317 -0.12629698 0.33339831 0.0012990456 833 207
0.072486959 -0.12642875 0.33332992 0.0013457284 778 193
0.076591603 -0.13066627 0.34406126 0.0014810443 674 167
0.078492522 -0.13104327 0.34460121 0.0015182114 644 160
0.080138274 -0.13098741 0.34399158 0.0014537935 687 170
0.080055691 -0.12816682 0.33612204 0.0012843247 842 209
0.08157181 -0.12796769 0.33512917 0.0012435522 878 218
0.083756067 -0.12880388 0.33683687 0.0012637344 860 213
0.085698359 -0.12924284 0.33749288 0.001308089 820 204
0.087039419 -0.12877564 0.33577555 0.0012803643 850 211
0.087959349 -0.12771435 0.33250883 0.0012699761 891 221
0.089615032 -0.12774061 0.33207211 0.0012249349 908 225
0.091225296 -0.12770236 0.33146343 0.0012425248 887 220
0.092897221 -0.12775025 0.33107501 0.0012220596 917 228
0.094652869 -0.12790963 0.3309727 0.0012761714 848 210
0.096710056 -0.12846409 0.33188918 0.0013714315 778 193
0.099095136 -0.12942828 0.33385888 0.0014257581 714 177
0.10157145 -0.13047789 0.33604339 0.0015155086 660 164
0.10386516 -0.13126275 0.33754286 0.0016455746 603 150
0.10690268 -0.13294758 0.34135309 0.0017557931 527 131
0.10922148 -0.13369974 0.3427673 0.0018126314 491 122
0.11193977 -0.13491014 0.34535909 0.0018936726 462 114
0.11438992 -0.13576543 0.34704679 0.0019967514 447 111
0.11771058 -0.1376128 0.35127568 0.0020459676 410 102
0.12211513 -0.14065406 0.35855255 0.0024032227 332 82
0.12799628 -0.14528283 0.36987072 0.0025945161 301 74
0.12875636 -0.1440495 0.36627677 0.0021701232 370 92
0.13011226 -0.1435082 0.36447379 0.0021199747 388 96
nan nan nan 0 296 73
nan nan nan 0 246 61
0.14396803 -0.15232892 0.38570538 0.0020815663 393 97
0.14663953 -0.15307918 0.38728338 0.0020614439 405 100
0.15006174 -0.15458298 0.39080215 0.0022183068 358 89
0.1541162 -0.15669033 0.39588159 0.0022293804 357 88
0.15885046 -0.15942574 0.40258399 0.0024573952 318 79
0.16805728 -0.16652338 0.4203364 0.002934715 266 66
0.17116717 -0.16747749 0.42262176 0.0028466936 273 67
0.17388512 -0.1680292 0.42394069 0.0029045611 266 66
0.17617252 -0.16815647 0.42423904 0.0028136531 257 63
0.17847316 -0.16829313 0.42461237 0.003369899 225 55
0.17978881 -0.16750881 0.42271328 0.0032029019 213 52
0.1793721 -0.16514802 0.41688517 0.0029054703 252 62
0.18114612 -0.16483578 0.41627657 0.0031152333 241 59
0.18321858 -0.16479921 0.41641393 0.0033548593 202 50
0.1941151 -0.17260993 0.43644267 0.0046455227 136 33
0.20238186 -0.17793252 0.4502556 0.0056481464 115 28
0.20437199 -0.1776796 0.45002186 0.0039149788 161 40
0.20586358 -0.17700361 0.44876558 0.0038328848 180 44
0.20795114 -0.1768492 0.44887957 0.0035622739 186 46
0.21000719 -0.17667162 0.44898257 0.0036495156 177 44
0.21270061 -0.17702828 0.45049176 0.0041466872 152 37
0.21644914 -0.17824632 0.45424521 0.0045008832 137 34
0.21907076 -0.17852059 0.45564482 0.0042804955 152 37
0.22054267 -0.17786197 0.45470625 0.0038644639 162 40
0.22216935 -0.17734036 0.45415598 0.0041694292 151 37
0.22369878 -0.17675248 0.45347258 0.0047915648 134 33
0.22529395 -0.17622782 0.45298639 0.004762385 129 32
0.22649826 -0.17541088 0.45178095 0.0052658864 120 29
0.22787969 -0.1747458 0.45099607 0.0052127107 113 28
0.22910896 -0.17397816 0.44997415 0.0054962672 114 28
nan nan nan 0 111 27
nan nan nan 0 111 27
-0.29989383 -0.19524913 0.51934779 0.022375081 22 5
-0.3028326 -0.19884364 0.53098649 0.025966959 24 5
-0.3066 -0.20304874 0.54353958 0.028424703 19 4
nan nan nan 0 20 4
nan nan nan 0 22 5
-0.28971353 -0.19694686 0.52722949 0.022100907 25 6
-0.28434423 -0.19501841 0.52125961 0.020330749 27 6
-0.27728036 -0.19188266 0.51187986 0.023237227 27 6
nan nan nan 0 25 6
nan nan nan 0 25 6
-0.27668792 -0.19677779 0.52132577 0.021020614 27 6
-0.27196178 -0.19521958 0.51596069 0.022510368 23 5
nan nan nan 0 33 8
-0.21849276 -0.15981801 0.4204151 0.010320564 61 15
nan nan nan 0 56 13
-0.20746863 -0.15469316 0.40511572 0.011234877 47 11
-0.20453401 -0.15399611 0.40243015 0.013199465 38 9
-0.20116195 -0.15295275 0.39888141 0.01270293 50 12
-0.19733454 -0.15153888 0.39441282 0.0064270496 91 22
-0.19628677 -0.1522526 0.39551988 0.0047073048 136 33
-0.19483912 -0.15266751 0.39588112 0.0044848137 147 36
-0.19066101 -0.1509295 0.39070255 0.0039679939 161 40
-0.1876505 -0.15008925 0.38789698 0.0033943541 200 49
-0.18620589 -0.15049699 0.38835743 0.0032610227 214 53
-0.18394452 -0.15024623 0.38715792 0.0031540671 227 56
-0.18276775 -0.15088551 0.38829157 0.0027892007 256 63
-0.18093492 -0.15099114 0.38809171 0.0029883126 258 64
-0.17607732 -0.14854725 0.38138878 0.0023966134 323 80
-0.17277619 -0.14737689 0.37800896 0.0021878835 359 89
-0.17118478 -0.14765501 0.37839079 0.002277276 349 86
-0.16976117 -0.1480858 0.37920728 0.0023601602 327 81
-0.16916481 -0.14925639 0.38196123 0.0026095493 285 70
-0.16736677 -0.14938155 0.3820844 0.0026257124 283 70
-0.16497722 -0.14897549 0.38089618 0.0026291441 308 76
-0.16113754 -0.1472348 0.37634447 0.0022105337 356 88
-0.16017142 -0.14810947 0.37852553 0.0024075506 322 80
-0.15976965 -0.1495336 0.38215739 0.0024910267 297 73
-0.15437175 -0.14625916 0.3738274 0.0020931528 389 96
-0.15359451 -0.14733554 0.37666318 0.0021811021 366 91
-0.15216847 -0.14780886 0.37800333 0.0028962761 273 67
-0.15012354 -0.14768544 0.37786198 0.002546831 318 79
-0.14614424 -0.14563124 0.3728205 0.0023030604 341 84
-0.1416411 -0.14299434 0.36632067 0.0020040169 425 105
-0.13938923 -0.14259034 0.3655743 0.0020003649 438 108
-0.14081122 -0.14598429 0.37460881 0.0023251818 335 83
-0.13449273 -0.14133653 0.36303908 0.0020036001 422 104
-0.13211057 -0.14075403 0.36193055 0.0017440736 514 127
-0.13048632 -0.14097399 0.36291435 0.001845369 470 116
-0.13133574 -0.14391072 0.37092963 0.0021736682 369 91
-0.13034597 -0.14488789 0.37393233 0.0024906246 303 75
-0.12439577 -0.14029907 0.36258072 0.0020109536 415 103
-0.12168765 -0.13928474 0.36046696 0.0017977795 516 128
-0.11854933 -0.13773996 0.35698828 0.0016711118 553 137
-0.12009477 -0.14167321 0.36773142 0.0022023027 365 90
-0.11680058 -0.13993077 0.36376369 0.0023440616 342 85
-0.11299071 -0.13750573 0.35801494 0.002292952 360 89
-0.11110175 -0.13737799 0.35824504 0.0021379555 382 95
-0.10777425 -0.13543834 0.35374731 0.0019719973 433 107
-0.1051246 -0.13430025 0.35133404 0.0019889972 427 106
-0.10138413 -0.13170673 0.34509951 0.0019368737 481 119
-0.098707855 -0.13043039 0.34230015 0.0016267704 568 141
-0.096304461 -0.12947637 0.34033602 0.0014404127 706 175
-0.094582006 -0.12942019 0.34072492 0.0013824435 742 184
-0.093540661 -0.13031082 0.34360585 0.0015549581 620 154
-0.093329549 -0.1324122 0.34968624 0.0019436346 444 110
-0.088241808 -0.12754381 0.33734283 0.0015678221 611 152
-0.0858417 -0.12644815 0.33494702 0.0013161297 803 199
-0.084372543 -0.12670782 0.33613026 0.0014193172 716 178
-0.084112056 -0.12882908 0.34225258 0.0018244269 488 121
-0.080676101 -0.12607409 0.33540908 0.0017060527 546 135
-0.078358531 -0.12498887 0.33298382 0.0015380086 630 156
-0.076201163 -0.12411864 0.33111441 0.0015500389 620 154
-0.07446751 -0.12391593 0.33101159 0.0015857966 632 157
-0.072819494 -0.12384991 0.33126256 0.001533456 636 158
-0.071185194 -0.12380473 0.33155823 0.0015289331 635 157
-0.069594957 -0.12383588 0.33204737 0.001531607 648 161
-0.068003006 -0.12386541 0.33252132 0.0015138609 644 160
-0.067225546 -0.12541585 0.33707207 0.0016665839 588 146
-0.066665016 -0.12745805 0.34294406 0.0017516549 547 136
-0.06359724 -0.12468853 0.33585599 0.0014748139 682 169
-0.064952224 -0.13067211 0.35234246 0.0016995217 565 140
-0.063573077 -0.13132855 0.35447192 0.0018726498 496 123
-0.059305493 -0.12588984 0.34012529 0.0015098951 678 168
-0.057799969 -0.12617208 0.34121051 0.0015475259 628 156
-0.057605103 -0.12941533 0.35030082 0.0016647321 552 137
-0.06180593 -0.14302561 0.38748157 0.0018202716 523 130
-0.059984401 -0.14311108 0.38804138 0.0017043492 532 132
-0.059908841 -0.14750075 0.40026951 0.0018616939 464 115
-0.058022808 -0.1475756 0.40078601 0.0017017166 535 133
-0.053792834 -0.14149034 0.38454822 0.0015170594 659 163
-0.054149214 -0.14746472 0.40107414 0.0018253437 485 120
-0.051507737 -0.14541377 0.39576873 0.0015868549 601 149
-0.049724035 -0.1457205 0.39686504 0.0015884481 598 148
-0.047813464 -0.14566498 0.39696378 0.0016607349 574 142
-0.045631733 -0.14474477 0.3946932 0.0017619128 546 135
-0.04381156 -0.14494161 0.39545625 0.0016678271 556 138
-0.042785324 -0.14790063 0.40374935 0.0017482135 515 128
-0.041049782 -0.14857064 0.405788 0.0017830695 525 130
-0.039477397 -0.14992633 0.40969148 0.0016886477 546 135
-0.037094198 -0.14818369 0.40511703 0.0014956146 666 165
-0.035276007 -0.14863089 0.40651724 0.0015909012 600 149
-0.033309337 -0.14846808 0.40623897 0.001687208 549 136
-0.030642057 -0.14497063 0.39682227 0.001624836 582 144
-0.028638404 -0.14436047 0.39529476 0.0016456125 557 138
-0.026737498 -0.14421904 0.39504024 0.0016946266 565 140
-0.024804413 -0.14386968 0.39420623 0.0016328413 571 142
-0.022712355 -0.1424662 0.39047301 0.0016350711 572 142
-0.020779006 -0.14189762 0.38901746 0.0016420804 562 139
-0.018894302 -0.14158289 0.38824809 0.0015866193 601 149
-0.017134968 -0.14224105 0.39013776 0.0015753858 609 151
-0.015221852 -0.1416274 0.38853037 0.0015447879 624 155
-0.013333219 -0.14110421 0.38716167 0.0015459062 653 162
-0.011554344 -0.14176092 0.38902166 0.001467337 680 169
-0.0097410176 -0.14216375 0.39017671 0.001447118 687 170
-0.0078654727 -0.14163461 0.38876525 0.0014798164 678 168
-0.0060506109 -0.14220871 0.39037341 0.0014988064 663 164
-0.0043027373 -0.14555331 0.39957884 0.001841045 475 118
-0.002418271 -0.14589785 0.40054026 0.0021421765 402 100
-0.00052699563 -0.14683855 0.4031297 0.0021955271 374 93
0.0013920127 -0.14813051 0.40667462 0.0022226057 364 90
0.0033225224 -0.14843719 0.40750566 0.0022730706 358 89
0.005251572 -0.14847739 0.4075962 0.0023217243 346 86
0.0071741119 -0.14836137 0.40724891 0.0023381873 335 83
0.009033381 -0.14726304 0.40419656 0.0023773327 332 82
0.010890407 -0.14651832 0.40210634 0.0023483906 338 84
0.012938534 -0.14818376 0.40662125 0.0023215946 340 84
0.014686786 -0.1464282 0.40173981 0.0022739675 351 87
0.016576292 -0.14632198 0.40137529 0.002211981 361 89
0.018054193 -0.14297797 0.39212191 0.0020839004 402 100
0.019938946 -0.14317916 0.3925842 0.0020274601 415 103
0.021157442 -0.13896982 0.38094687 0.0019204338 446 110
0.022886962 -0.13851492 0.37959558 0.0018246563 490 121
0.024419282 -0.1370198 0.37538612 0.0017930595 500 124
0.025845405 -0.13517237 0.37020537 0.0016652191 560 139
0.027417963 -0.13427708 0.36762568 0.0015683726 630 156
0.028873408 -0.13294959 0.3638559 0.0015362754 665 165
0.030643111 -0.13313729 0.364225 0.0015397362 664 165
0.032478869 -0.13357659 0.36527231 0.001521747 667 165
0.034282174 -0.13384464 0.36584118 0.0015329218 668 166
0.036665268 -0.13624123 0.37221491 0.0016255508 580 144
0.038686357 -0.13713394 0.37446591 0.0017080489 543 135
0.039357785 -0.13337439 0.36400723 0.0015261981 634 157
0.041102614 -0.13341597 0.36391795 0.0014400221 702 174
0.042881221 -0.13355938 0.36409605 0.0015001477 659 163
0.047267478 -0.14149781 0.38550028 0.0020286844 445 110
0.049105749 -0.14149998 0.3852585 0.0020438635 409 101
0.050849892 -0.14124058 0.38429356 0.0021814804 401 99
0.05092622 -0.13652796 0.37121028 0.0018025963 499 124
0.050198421 -0.1300492 0.35333574 0.0015620716 637 158
0.050861355 -0.12747791 0.34608492 0.0014753183 701 174
0.05252545 -0.12749888 0.34586638 0.0013978822 749 186
0.05395788 -0.12697345 0.34415579 0.0013396979 783 194
0.055245049 -0.12614748 0.34162277 0.0013422639 819 203
0.056586895 -0.12549032 0.33953944 0.0012739131 864 214
0.058148406 -0.12534349 0.33882773 0.0012857985 844 209
0.059848621 -0.12549548 0.33891267 0.001326461 833 207
0.061393153 -0.12532161 0.33810648 0.0012662238 862 214
0.063099086 -0.1254777 0.33817911 0.0013126309 851 211
0.06430652 -0.12465956 0.33561674 0.0012481726 895 222
0.065540291 -0.12393143 0.33328986 0.0012225729 920 228
0.067107603 -0.12385375 0.3327035 0.0011903342 955 237
0.069219016 -0.12476042 0.33474755 0.0012656916 883 219
0.070705704 -0.12452535 0.33371496 0.0012439389 883 219
0.072582789 -0.12497301 0.33450025 0.0012848555 845 210
0.074264914 -0.1250727 0.33434147 0.0013353584 787 195
0.077672012 -0.12801106 0.34174973 0.0015053999 678 168
0.080139682 -0.12931046 0.34475687 0.0014949692 660 164
0.080312356 -0.12692942 0.33794507 0.0013533663 775 192
0.081692666 -0.12651435 0.33636808 0.0012590319 876 217
0.083298936 -0.12645867 0.33573902 0.0012393219 897 223
0.085283376 -0.12696819 0.33659998 0.0013228877 835 207
0.086867213 -0.12687327 0.33584875 0.001285463 838 208
0.087970726 -0.1260934 0.33328038 0.0012887815 889 221
0.089154378 -0.12545481 0.33108464 0.0011965535 939 233
0.091450721 -0.12637678 0.33300048 0.0012284834 932 231
0.092731103 -0.12588704 0.33119011 0.0011884873 972 241
0.094490409 -0.12605312 0.33110318 0.00128607 875 217
0.096518382 -0.12656589 0.33192182 0.0013433989 811 201
0.099058412 -0.1277217 0.33441907 0.0015596778 657 163
0.10185567 -0.12916563 0.33766082 0.0016197304 602 149
0.10399553 -0.12974265 0.33863032 0.0016507556 563 140
0.10688418 -0.13122053 0.34194693 0.0017158259 525 130
0.10989092 -0.13279474 0.34550828 0.0018286397 487 121
0.11227088 -0.13357458 0.34700185 0.0018991586 459 114
0.1151317 -0.1348941 0.34989983 0.0019353008 449 111
0.1172888 -0.13536189 0.35059476 0.0019471865 433 107
0.1201025 -0.1365625 0.35319689 0.0021223309 380 94
0.12770782 -0.14309715 0.3695851 0.0023737489 324 80
0.12900536 -0.14247784 0.36749652 0.0022565848 352 87
0.12940317 -0.14089639 0.36295772 0.0021206259 395 98
nan nan nan 0 308 76
0.14718372 -0.15584891 0.40054885 0.0028570367 249 61
0.14550559 -0.15198211 0.39020741 0.002251772 351 87
0.14818737 -0.15271187 0.39171174 0.002298092 368 91
0.15119596 -0.15375468 0.39405328 0.0022429689 350 87
0.15612839 -0.15670119 0.40130645 0.0024070537 320 79
0.16510907 -0.1635827 0.41866335 0.0023783087 320 79
0.16782048 -0.164157 0.41991279 0.0023252941 338 84
0.16964805 -0.16386317 0.41898969 0.0023944387 316 78
0.17274535 -0.16478787 0.42123142 0.0025622831 287 71
0.17554027 -0.16540502 0.42273694 0.0027453178 266 66
0.17706233 -0.16482237 0.42122766 0.002726506 267 66
0.17851757 -0.16419217 0.41964895 0.0029158064 240 59
0.17940654 -0.16306217 0.41684431 0.0031474505 227 56
0.1812772 -0.1628404 0.41641238 0.0035860906 203 50
0.18385418 -0.16325091 0.41764915 0.0035794291 187 46
0.1907068 -0.16740526 0.42852172 0.004248145 146 36
0.20341361 -0.17654696 0.45223516 0.0054896204 116 28
0.20331858 -0.17449772 0.44734845 0.0046811914 132 32
0.20536321 -0.17430979 0.44728145 0.0047618621 135 33
0.20828696 -0.17486401 0.44917151 0.0042845006 148 36
0.21053141 -0.17484212 0.44963393 0.0040461477 159 39
0.21355116 -0.17545769 0.45178723 0.0042093727 148 36
0.21699084 -0.17640164 0.45484 0.0046063364 131 32
0.21884657 -0.17605166 0.45460591 0.0044124378 142 35
0.21917546 -0.17449336 0.45129028 0.0045506717 147 36
0.22134173 -0.17441477 0.45183933 0.0046026595 137 34
0.22391365 -0.1746542 0.45325622 0.0048382324 123 30
0.22503175 -0.17376618 0.45178577 0.0055590812 115 28
0.22549702 -0.17239672 0.44909266 0.0053968485 107 26
0.22653474 -0.17148753 0.44762552 0.0056114439 104 25
0.23041911 -0.17272997 0.45181358 0.0056132451 104 25
nan nan nan 0 100 24
nan nan nan 0 104 25
-0.31501612 -0.20243125 0.5470171 0.02306092 22 5
-0.29763812 -0.19289494 0.52279794 0.02376331 25 6
-0.29905605 -0.19548073 0.53061211 0.021892032 25 6
nan nan nan 0 18 4
nan nan nan 0 17 4
-0.29545072 -0.19823875 0.53713518 0.03167922 18 4
-0.29799968 -0.20172989 0.54558378 0.025653576 21 5
-0.28925049 -0.19756679 0.5331803 0.026118832 21 5
nan nan nan 0 22 5
nan nan nan 0 32 7
nan nan nan 0 28 6
nan nan nan 0 42 10
-0.21387155 -0.1529534 0.40791243 0.0063259415 92 22
-0.21118966 -0.15247005 0.40568772 0.0051430967 117 29
-0.20581023 -0.15001126 0.39825243 0.00681599 84 20
-0.20596817 -0.15158001 0.40154505 0.012918474 52 12
-0.20340446 -0.1511569 0.39958659 0.0094692595 56 13
-0.1996939 -0.14986475 0.39537355 0.00658075 96 23
-0.19759856 -0.14977108 0.39436442 0.0044393502 141 35
-0.19660704 -0.15052061 0.39560819 0.0040010405 169 42
-0.19492862 -0.15075415 0.39552841 0.0042083808 168 41
-0.18932971 -0.1479293 0.38747403 0.0036989872 198 49
-0.18690112 -0.14754857 0.38587451 0.0033975809 209 51
-0.18486752 -0.14747493 0.38511986 0.0029639276 239 59
-0.18396677 -0.14831305 0.3867847 0.0029891308 247 61
-0.18287146 -0.14901057 0.3881202 0.0027954422 260 64
-0.18015687 -0.14838947 0.38606453 0.002909387 257 63
-0.17609634 -0.14663403 0.38110873 0.0024194985 317 78
-0.17288446 -0.14555417 0.37796104 0.0022531925 370 92
-0.17097156 -0.145556 0.37767023 0.0023438667 350 87
-0.16998786 -0.14635791 0.37950027 0.0023977044 317 78
-0.1692529 -0.14739485 0.38198408 0.002568837 289 71
-0.16736814 -0.14744286 0.38195148 0.002478177 305 75
-0.16397148 -0.14614448 0.37848032 0.002208191 359 89
-0.160943 -0.14514734 0.3758387 0.0022124422 357 88
-0.16055448 -0.14653571 0.37942198 0.002194379 377 93
-0.15613885 -0.14423767 0.37350729 0.0022175221 356 88
-0.15535244 -0.14527692 0.37628111 0.0021877915 372 92
-0.15395473 -0.14576328 0.37767035 0.0021863449 363 90
-0.1519673 -0.14569654 0.37767223 0.0024111753 315 78
-0.148845 -0.14452612 0.37485549 0.0022316072 358 89
-0.1476948 -0.1452651 0.37703311 0.0024531188 325 80
-0.14440474 -0.1438912 0.37376621 0.0022165051 379 94
-0.13909692 -0.14044349 0.3651402 0.0019184672 456 113
-0.13938603 -0.14263014 0.37119642 0.0022764734 348 86
-0.13520473 -0.14023963 0.36537334 0.0020773746 414 102
-0.13226044 -0.13908377 0.3627879 0.0017753639 499 124
-0.13021201 -0.13885075 0.36263376 0.0017014284 531 132
-0.13105856 -0.14174211 0.37067455 0.0019079635 451 112
-0.13013026 -0.14276969 0.37387887 0.0024425385 324 80
-0.12391367 -0.13794044 0.36175236 0.0020242888 435 108
-0.12078981 -0.13646165 0.35840634 0.0017548037 535 133
-0.11821516 -0.13556802 0.35660324 0.0016592829 574 142
-0.11923801 -0.13883582 0.36576897 0.0021546059 400 99
-0.11724614 -0.13864046 0.36583397 0.0023175159 339 84
-0.11484315 -0.1379451 0.36458409 0.0022819808 361 89
-0.11209621 -0.13680768 0.36216393 0.0021500895 378 94
-0.10822359 -0.13423684 0.35593694 0.0020646837 404 100
-0.10547084 -0.13299279 0.35321343 0.0019465421 436 108
-0.10232059 -0.13119711 0.34901169 0.0018682057 466 115
-0.099528246 -0.12980656 0.3458724 0.0016363718 574 142
-0.096228659 -0.12769438 0.3407923 0.0014525576 731 181
-0.094562091 -0.12771262 0.34138453 0.0014511279 729 181
-0.093690284 -0.12882431 0.34489915 0.0015816002 625 155
-0.092838004 -0.13000433 0.34859982 0.0020046697 457 113
-0.087530077 -0.12487212 0.33535081 0.0015084886 664 165
-0.085802995 -0.12474979 0.33552662 0.001320661 830 206
-0.084230669 -0.12485207 0.33629775 0.0013986911 736 183
-0.084725961 -0.12808415 0.34550288 0.0019414653 470 116
-0.08032541 -0.12389595 0.33467856 0.0016424954 558 138
-0.078235194 -0.12317154 0.33318207 0.001599131 626 155
-0.07605511 -0.12227201 0.33119538 0.0015496887 649 161
-0.074157 -0.12179675 0.33034226 0.0015639013 647 160
-0.072316118 -0.12139655 0.32967868 0.001516571 653 162
-0.070859097 -0.12163721 0.33074388 0.0015522639 625 155
-0.069045745 -0.12126317 0.33012608 0.0015426137 662 164
-0.067568384 -0.1214755 0.33109272 0.0014756608 710 176
-0.066536948 -0.12251922 0.33431804 0.0015504303 622 154
-0.066445284 -0.12538821 0.34252447 0.001626928 574 142
-0.064636186 -0.1250798 0.34204721 0.0015528803 624 155
-0.062993035 -0.12508483 0.3424145 0.0016145734 612 152
-0.063602544 -0.12968318 0.3553569 0.0017492406 514 127
-0.060200613 -0.12613043 0.34595498 0.0015613744 620 154
-0.057245746 -0.1233395 0.33861458 0.0014214213 713 177
-0.057493877 -0.12748809 0.35031781 0.0016350033 591 147
-0.061845116 -0.14125775 0.38848984 0.0018001912 482 119
-0.060055587 -0.14142023 0.3892597 0.0016383437 564 140
-0.05952131 -0.14464353 0.3984496 0.0017513289 513 127
-0.05776009 -0.14499961 0.39973664 0.0016274796 581 144
-0.053578019 -0.13909523 0.38374126 0.0014698748 677 168
-0.054028388 -0.14522496 0.40093446 0.0018512369 496 123
-0.051623579 -0.14384818 0.39740127 0.0016074065 582 144
-0.049713578 -0.14379789 0.39751849 0.0016318023 572 142
-0.047915138 -0.14407907 0.39854094 0.0016372325 570 141
-0.04559236 -0.1427418 0.39507368 0.0016311412 569 141
-0.043558385 -0.14223269 0.39388457 0.0016105484 582 144
-0.042987261 -0.14666894 0.40638575 0.0017359179 515 128
-0.040986139 -0.14641391 0.40588367 0.0017165001 545 135
-0.038854193 -0.14564332 0.40394032 0.0015725313 620 154
-0.036700353 -0.14470643 0.40152314 0.0014542838 707 175
-0.035084859 -0.14590581 0.40502357 0.0017178502 563 140
-0.032912936 -0.14479613 0.40210414 0.0017316506 557 138
-0.030731179 -0.14350417 0.39866605 0.0016250734 573 142
-0.028632566 -0.14245671 0.39589518 0.0015776214 604 150
-0.026677478 -0.14202665 0.39482915 0.0016248955 582 144
-0.024715533 -0.14149253 0.39346373 0.0015928248 603 150
-0.022672663 -0.14037037 0.3904525 0.0015882108 600 149
-0.020695146 -0.13948968 0.38810253 0.0016142284 619 153
-0.018866777 -0.13954069 0.38833538 0.0015245914 637 158
-0.017156474 -0.14057009 0.39128286 0.0015637042 612 152
-0.015327752 -0.14076072 0.39188766 0.0016206431 596 148
-0.013438262 -0.14036903 0.39086252 0.0015949623 615 153
-0.011578482 -0.14021228 0.39048281 0.0015021875 656 163
-0.0097466437 -0.14039862 0.39105004 0.0015388642 647 160
-0.0079176566 -0.1407228 0.39199296 0.0015434623 622 154
-0.006167518 -0.14307399 0.39857435 0.0017369816 545 135
-0.0043139649 -0.14403799 0.40128359 0.0019295143 462 114
-0.0024107797 -0.1435571 0.39995897 0.0019327005 446 110
-0.00052437 -0.14420958 0.40178347 0.0020227388 411 102
0.0013783277 -0.14476949 0.40334153 0.0022206646 395 98
0.0033139975 -0.14613365 0.40713155 0.0022480837 375 93
0.005204903 -0.14524689 0.4046419 0.0021926507 379 94
0.0071004657 -0.1449315 0.40373555 0.0022592724 380 94
0.0089845322 -0.14456466 0.40267742 0.0023129564 379 94
0.010730186 -0.14248797 0.39684862 0.0021507069 394 98
0.012566245 -0.142051 0.39557889 0.0021073669 395 98
0.014293869 -0.14066011 0.39164484 0.0020890916 400 99
0.016104573 -0.14031194 0.39060628 0.0020009617 421 104
0.017502001 -0.13680497 0.38076755 0.0018995355 472 117
0.019219231 -0.13621873 0.37905186 0.0018386533 475 118
0.020936001 -0.13572951 0.37759826 0.0017929444 494 122
0.022538815 -0.13463646 0.37445733 0.001690288 551 137
0.024048563 -0.13318731 0.37031931 0.0016168001 577 143
0.025655037 -0.13243431 0.36810997 0.0015533986 624 155
0.027178725 -0.13137689 0.36504748 0.0015527289 670 166
0.028871264 -0.13121334 0.36446103 0.0014727048 714 177
0.030603601 -0.13123889 0.36439103 0.0014996741 669 166
0.032480996 -0.13185057 0.36593866 0.001537588 634 157
0.034308612 -0.13220838 0.3667714 0.0015628019 621 154
0.036060449 -0.13225377 0.36672741 0.0015496842 631 156
0.037368178 -0.13074113 0.36235562 0.0014153783 710 176
0.039114427 -0.13082838 0.36241031 0.0014207085 752 187
0.040816158 -0.13076565 0.36203974 0.001424819 752 187
0.042867459 -0.13178265 0.36464709 0.0015911908 618 153
0.046751302 -0.13813515 0.38199553 0.0020476223 434 107
0.049563207 -0.14096352 0.38957214 0.0021090077 392 97
0.049340986 -0.13526967 0.37359068 0.0018763561 462 114
0.047874011 -0.1266786 0.34962317 0.0014604006 680 169
0.048863519 -0.12494694 0.34459648 0.0013481262 781 194
0.050495747 -0.124918 0.34425882 0.0013794525 793 197
0.052148003 -0.12493885 0.34404767 0.0012975393 828 205
0.053548135 -0.12437285 0.34221101 0.0013185259 832 206
0.05487645 -0.12367857 0.34001333 0.0012655284 885 220
0.056402404 -0.12345687 0.33910614 0.0012430839 892 221
0.058023363 -0.12344972 0.33877766 0.0012951562 830 206
0.05957821 -0.1233061 0.33806399 0.0013300255 831 206
0.061462894 -0.12383468 0.3391808 0.0012589868 872 216
0.062476508 -0.12262625 0.33553064 0.0012251566 912 226
0.063907392 -0.12227704 0.33422443 0.0012199376 928 230
0.065609425 -0.12245105 0.33433741 0.001215813 924 229
0.0676217 -0.12318186 0.33595651 0.0012365092 893 222
0.068732172 -0.12227415 0.33309597 0.0012205418 925 230
0.071172632 -0.1237199 0.3366335 0.001277244 851 211
0.072687179 -0.12352746 0.33569813 0.0012928371 833 207
0.07433977 -0.12357292 0.33539838 0.0013276924 807 200
0.07674589 -0.12484217 0.33840448 0.0013933108 733 182
0.07864996 -0.12525865 0.339082 0.0014380172 709 176
0.080270238 -0.12521538 0.33850271 0.001392244 769 191
0.081692256 -0.12487079 0.33709976 0.0012799103 882 219
0.083269797 -0.1247728 0.33635426 0.0012128489 930 231
0.084955044 -0.12483689 0.33603615 0.0012384116 898 223
0.086707957 -0.1249961 0.33596408 0.0013018986 824 204
0.088483483 -0.12518135 0.33595231 0.0012725323 856 212
0.088909678 -0.12348577 0.33089149 0.001190433 951 236
0.090636119 -0.12362453 0.33074555 0.0011826496 976 242
0.092668094 -0.12416781 0.3316732 0.0011996551 963 239
0.094355002 -0.12423788 0.33132952 0.0012530913 911 226
0.096108966 -0.12439238 0.33120656 0.0013183502 842 209
0.099879414 -0.1271079 0.33788776 0.0015730071 625 155
0.10212956 -0.1278311 0.33925721 0.0016537487 563 140
0.10490236 -0.12917443 0.34226426 0.0016954006 540 134
0.10698517 -0.12963885 0.34293729 0.0017265129 522 129
0.11056502 -0.13187428 0.34828809 0.0018645324 490 121
0.11313119 -0.13285021 0.35030562 0.0019212221 463 115
0.11548826 -0.13355465 0.35160893 0.0019694108 452 112
0.1179029 -0.13430358 0.35303459 0.0019902363 433 107
0.12007239 -0.13475527 0.35368764 0.0019984227 424 105
0.12475592 -0.13797419 0.36160573 0.0023222324 349 86
0.13063167 -0.14240041 0.37267837 0.0023718902 327 81
0.1292896 -0.13894464 0.36314118 0.0020612979 399 99
nan nan nan 0 320 79
0.14679664 -0.15342049 0.39996982 0.002816509 257 63
0.14604732 -0.15056695 0.39208412 0.0021506471 370 92
0.14893486 -0.15148903 0.39407083 0.0023574682 357 88
0.15350834 -0.15407896 0.40042439 0.0023750928 327 81
0.16371597 -0.16218276 0.42112339 0.002657027 297 73
0.1658078 -0.16214168 0.42069989 0.0022213247 353 87
0.16679308 -0.1610333 0.41755572 0.0021555882 367 91
0.16882168 -0.16094738 0.41711274 0.0022794069 367 91
0.17145434 -0.16143236 0.41819829 0.0023703021 327 81
0.17423882 -0.16204664 0.41966867 0.002678097 272 67
0.17634165 -0.1620198 0.41953024 0.0028561554 254 63
0.17718628 -0.16085139 0.4164885 0.0025946291 288 71
0.17891739 -0.16050582 0.41563013 0.0027591004 271 67
0.18108262 -0.1605532 0.41584203 0.0031287139 218 54
0.18755509 -0.1643744 0.42588434 0.0036694738 186 46
0.18997383 -0.16459624 0.42665851 0.0042370544 147 36
0.19597456 -0.16788164 0.43543237 0.0046669883 129 32
0.20074654 -0.17005289 0.44137946 0.0046453518 142 35
0.20247893 -0.16962981 0.44064957 0.0044817901 139 34
0.20558499 -0.17035423 0.44295418 0.0046737972 129 32
0.20894641 -0.17127235 0.4458186 0.0048205196 123 30
0.2120672 -0.17197573 0.44817978 0.0049342327 124 30
0.21565843 -0.17304173 0.45154178 0.0052770656 114 28
0.21780463 -0.17293811 0.45190397 0.0050345846 122 30
0.21925613 -0.17229074 0.45089 0.0051284432 125 31
0.22000878 -0.17111306 0.44852683 0.0052016228 127 31
0.22381665 -0.17231141 0.45243663 0.0048780167 123 30
0.22456339 -0.17115267 0.45020074 0.0049228612 120 29
0.22415717 -0.16914691 0.44576323 0.0049915956 124 30
0.22494265 -0.16807099 0.44380051 0.0050712461 120 29
0.22625907 -0.16740887 0.44295943 0.0057561635 108 26
nan nan nan 0 102 25
nan nan nan 0 94 23
-0.28781918 -0.18252088 0.50082809 0.024793057 21 5
nan nan nan 0 34 8
-0.28333634 -0.18276867 0.50287449 0.024044652 26 6
-0.27431029 -0.17848128 0.49088788 0.029600777 19 4
nan nan nan 0 31 7
nan nan nan 0 21 5
nan nan nan 0 24 5
nan nan nan 0 19 4
nan nan nan 0 26 6
-0.24249847 -0.16644609 0.452292 0.020517785 29 7
nan nan nan 0 50 12
-0.21349606 -0.14927143 0.403678 0.00592981 102 25
-0.2092655 -0.14769025 0.39847001 0.0043223999 144 35
-0.20971282 -0.14941181 0.40219921 0.0050638206 134 33
-0.20328878 -0.14622392 0.39275077 0.0076003745 77 19
-0.20178667 -0.14654884 0.39278612 0.0091007277 57 14
-0.20118691 -0.14754187 0.3946377 0.0066935583 88 21
-0.20011102 -0.1482019 0.39562425 0.0041785394 149 37
-0.19739543 -0.14764863 0.3934074 0.0041494425 171 42
-0.1958164 -0.14794287 0.39348727 0.0035080896 186 46
-0.19382055 -0.14792499 0.39277416 0.0034589465 196 48
-0.18993215 -0.14644752 0.38823146 0.0033074254 211 52
-0.18700214 -0.14568597 0.38563657 0.0032358947 228 56
-0.18540046 -0.14595418 0.38581103 0.0029224912 247 61
-0.18491194 -0.14711365 0.38837937 0.002819417 257 63
-0.18318571 -0.14730275 0.38842562 0.0029547827 261 64
-0.17917807 -0.14564152 0.38364223 0.0026806705 276 68
-0.17643708 -0.14498478 0.3815569 0.0025266074 317 78
-0.17369947 -0.14431627 0.37949023 0.0021609198 388 96
-0.17189071 -0.14441314 0.37948468 0.0022207301 383 95
-0.17141816 -0.14564757 0.38251421 0.002489181 300 74
-0.16908361 -0.14531006 0.38146296 0.0024620525 305 75
-0.1667556 -0.14497046 0.38045582 0.0022363369 352 87
-0.1640555 -0.14429556 0.37861875 0.0022418799 354 88
-0.16137247 -0.14361985 0.37682894 0.0021385592 375 93
-0.15912685 -0.1433219 0.3760789 0.0019769347 424 105
-0.15800123 -0.14403772 0.37803745 0.0021512627 377 93
-0.15427752 -0.14237352 0.3737959 0.0020605123 432 107
-0.15298505 -0.14293948 0.37545487 0.0021414831 394 98
-0.15051508 -0.14240561 0.37427005 0.0021869901 360 89
-0.14871691 -0.14250186 0.37478411 0.0020605549 398 99
-0.14870912 -0.14433835 0.37992102 0.0024797595 326 81
-0.1461661 -0.14373004 0.37866578 0.002317949 355 88
-0.13925225 -0.13875045 0.36591747 0.0018830353 458 113
-0.13888693 -0.14024958 0.37028089 0.0022008016 381 94
-0.1364596 -0.13967898 0.36921498 0.0020506608 425 105
-0.13250844 -0.13751121 0.36394799 0.0017325764 520 129
-0.13003889 -0.13684173 0.36266366 0.0016385637 572 142
-0.12840414 -0.13704418 0.36371255 0.0017010061 555 138
-0.1298295 -0.14056562 0.3736057 0.0021789493 370 92
-0.12377624 -0.13597459 0.36195141 0.0019404836 467 116
-0.1212446 -0.13517325 0.36037886 0.0017048467 545 135
-0.11835274 -0.13394006 0.35765958 0.0016292616 581 144
-0.11919613 -0.13696104 0.3663187 0.0020487201 403 100
-0.11721912 -0.13678485 0.36644733 0.0022414054 357 88
-0.11484199 -0.1361288 0.36529282 0.0022654806 379 94
-0.11257884 -0.13558897 0.36444876 0.0022003474 373 92
-0.10871562 -0.13307296 0.35828122 0.0020196852 411 102
-0.10504919 -0.13071834 0.35252637 0.0018808999 464 115
