# .PCD v0.7 - Point Cloud Data file format
VERSION 0.7
FIELDS x y z noise intensity gray
SIZE 4 4 4 4 2 1
TYPE F F F F U U
COUNT 1 1 1 1 1 1
WIDTH 896
HEIGHT 1
VIEWPOINT 0 0 0 1 0 0 0
POINTS 896
DATA ascii
-0.056006417 0.11763719 0.34375861 0.01238587 45 11
-0.053814042 0.11642905 0.34049758 0.011371922 45 11
-0.051259536 0.11433829 0.33463719 0.012449402 42 11
-0.047949839 0.11037546 0.32327455 0.01177905 46 12
-0.046250343 0.10997979 0.32234052 0.0110479 46 12
-0.046217617 0.11365591 0.33333758 0.010918177 50 13
-0.044447895 0.11316945 0.3321231 0.01100095 49 13
-0.041696094 0.11005519 0.32318076 0.01173602 48 12
-0.039603751 0.10851074 0.31883106 0.0098027159 53 14
-0.038592216 0.10992254 0.32315868 0.0099199247 53 14
-0.03725978 0.11049898 0.32502508 0.0099883005 61 16
-0.035803281 0.11074123 0.32590136 0.010017468 55 14
-0.034586165 0.11177886 0.32911196 0.0091264555 62 16
-0.033015385 0.11171734 0.32907945 0.0095299324 56 14
-0.031328496 0.11123746 0.327806 0.010477329 51 13
-0.02968353 0.11086439 0.32683843 0.0088237263 57 15
-0.028104814 0.11071144 0.32651156 0.0096611874 56 14
-0.026428701 0.11013493 0.32492733 0.010718117 50 13
-0.024862118 0.10997206 0.32455528 0.010444204 54 14
-0.023126483 0.10899112 0.32176083 0.010642829 51 13
-0.021568913 0.10877079 0.32120368 0.0093671018 56 14
-0.019913645 0.10798743 0.31897628 0.0098403068 61 16
-0.018426113 0.10806015 0.31927025 0.0097612143 53 14
-0.016918836 0.10801969 0.3192234 0.0098505812 55 14
-0.015731407 0.11021218 0.32577023 0.010011634 53 14
-0.014289012 0.11089856 0.32786041 0.0103472 55 14
-0.012757414 0.11097486 0.3281408 0.010778947 54 14
-0.011176812 0.11058723 0.32704294 0.010222194 52 13
-0.009475166 0.10868764 0.32146642 0.0096042193 56 14
-0.0079009822 0.1078072 0.31889713 0.010293096 58 15
-0.0064328322 0.10830012 0.32038397 0.010417681 54 14
-0.0049669053 0.10914277 0.3228997 0.0097242631 59 15
-0.003441877 0.10885658 0.32206973 0.010283567 53 14
-0.0019176746 0.10816852 0.3200447 0.0098661399 59 15
-0.00041580608 0.10831934 0.32049558 0.010619741 57 15
0.0010845297 0.10790084 0.31925601 0.0094524529 60 15
0.0025941751 0.1083568 0.32059777 0.0094565498 55 14
0.0041017984 0.1084245 0.32078463 0.0092295725 59 15
0.0056253704 0.1087642 0.32177025 0.0097888056 61 16
0.0071179671 0.10848796 0.3209275 0.0089939637 61 16
0.0085822521 0.10795212 0.31931096 0.0090675559 57 15
0.010168366 0.10888018 0.32201821 0.0092769442 59 15
0.011784709 0.10984971 0.32484114 0.0099172434 56 14
0.013440237 0.11092034 0.3279559 0.0093656993 58 15
0.014787341 0.10948715 0.32366142 0.0094629498 58 15
0.016305566 0.10947014 0.3235476 0.010082436 58 15
0.017816553 0.10941154 0.3233045 0.0093410583 58 15
0.019261029 0.10898583 0.32197031 0.0087524876 62 16
0.020598393 0.10806025 0.31915376 0.0091474503 62 16
0.02215343 0.10832474 0.31984577 0.0095982524 58 15
0.024200037 0.11080639 0.32707497 0.0084325522 67 17
0.025816914 0.11114126 0.32795781 0.0089092087 62 16
0.026612604 0.10810263 0.31888145 0.0091732536 61 16
0.027750786 0.10670551 0.31464466 0.0085079074 67 17
0.029532598 0.1077994 0.31774616 0.0092341537 60 15
0.031334922 0.10885902 0.32073659 0.0098286029 57 15
0.032657612 0.10823148 0.31874797 0.0086892545 66 17
0.033659227 0.10664195 0.31392124 0.0088211773 61 16
0.035121597 0.10658466 0.3135995 0.0090934178 56 14
0.0370561 0.10790687 0.31732661 0.0099295639 58 15
0.038919076 0.1089261 0.32015082 0.0095029017 59 15
0.040164884 0.10820634 0.31785491 0.009299567 60 15
0.041727733 0.10836183 0.31812239 0.0086280052 62 16
0.043327644 0.10859938 0.31862113 0.0083305482 68 18
0.044998441 0.10899267 0.31956661 0.0089062797 64 17
0.04616908 0.1081883 0.3169921 0.0090228207 62 16
0.047775034 0.1084226 0.31745261 0.0093762372 64 17
0.049009342 0.10782489 0.31546831 0.0094778882 60 15
0.050379097 0.1075518 0.31442589 0.0089857969 60 15
0.052238714 0.10831011 0.31638771 0.0092027588 58 15
0.053875282 0.10857643 0.31689981 0.0091333194 59 15
0.05495597 0.10773849 0.31418002 0.0094750104 59 15
0.056298133 0.10744401 0.31303743 0.010135673 60 15
0.058978505 0.10965271 0.31917208 0.010019436 57 15
0.061935481 0.11225151 0.32641774 0.0091953753 63 16
0.062100161 0.10978623 0.31892607 0.0084649818 68 18
0.063359201 0.10932747 0.3172605 0.0083940551 72 19
0.066776045 0.11252633 0.32618925 0.0075843302 76 20
0.071220912 0.11727162 0.33956337 0.0066688401 85 22
0.072665162 0.11697441 0.33831006 0.0062621566 92 24
0.074194632 0.11682437 0.33747146 0.0053253081 112 29
0.076388665 0.11770474 0.33959445 0.0051188665 117 31
0.079120837 0.11936007 0.34393153 0.0046605528 126 33
0.081510589 0.12044147 0.34659204 0.0045247688 144 38
0.081647947 0.11821814 0.33973455 0.0039649927 163 43
0.083641224 0.11871667 0.34069353 0.0038627442 182 48
0.085424967 0.11890428 0.34074524 0.0035110817 187 49
0.087782875 0.11986879 0.34300673 0.0032785442 202 53
0.089343868 0.11972947 0.34209451 0.0030855371 225 59
0.091213338 0.12000107 0.34234449 0.002880285 247 65
0.093274862 0.12051105 0.34326047 0.0027386413 261 69
0.094641671 0.1201213 0.34160292 0.0027361419 259 68
0.097283885 0.12133579 0.34449419 0.0027361466 271 72
0.098234743 0.12043532 0.34137076 0.002587674 283 75
0.10033661 0.1209525 0.34225968 0.002766666 283 75
0.10260843 0.12165416 0.34365821 0.0025932947 291 77
0.10370852 0.12096637 0.34112608 0.0026728448 287 76
0.10586008 0.12150738 0.34205595 0.0025717332 300 79
0.10729431 0.12122099 0.34065282 0.0024716642 312 83
0.10935524 0.12164057 0.34123206 0.0024633086 301 80
0.11159464 0.12224285 0.34231982 0.0025511843 306 81
0.11350193 0.12246873 0.34235242 0.0025409749 308 81
0.11449035 0.12171113 0.3396436 0.0024059145 308 81
0.1168442 0.12240601 0.34099567 0.0024337186 312 83
0.11895947 0.12283459 0.34161055 0.0024832671 314 83
0.12066343 0.12283235 0.34103763 0.0023654925 321 85
0.12207475 0.12253645 0.33966595 0.0024754556 300 79
0.1237444 0.12250439 0.33904487 0.0024656444 306 81
0.12571067 0.12276287 0.33924747 0.0025702182 312 83
0.12780051 0.12313351 0.33978084 0.0023928934 319 84
0.12945889 0.12308415 0.33918011 0.0024999492 319 84
0.13098951 0.12291617 0.33828202 0.0023815837 313 83
0.1324959 0.12273008 0.3373667 0.0025305983 304 80
0.13438427 0.12289806 0.33745852 0.0025201796 297 79
0.13597997 0.1227975 0.33684886 0.0025816665 284 75
0.1368465 0.12204912 0.33450231 0.0025722408 290 77
0.13726033 0.12092026 0.33115679 0.0025900903 286 76
0.13843109 0.12047743 0.32973421 0.0025914826 280 74
0.13978344 0.12020135 0.32881135 0.002470772 297 79
0.14156845 0.12029944 0.32895547 0.002429697 310 82
0.14309856 0.12018116 0.32855195 0.0026126516 300 79
0.14501289 0.12038457 0.32907254 0.0024494778 302 80
0.1461854 0.11997452 0.32796112 0.0024255717 308 81
0.14771964 0.11986726 0.32772249 0.0025090219 301 80
0.14901802 0.11957315 0.32701746 0.0026325961 295 78
0.14982386 0.11889462 0.32530466 0.0026009693 299 79
0.15013704 0.11784422 0.3226158 0.0025163463 296 78
0.15086234 0.11713646 0.32090479 0.002439192 310 82
0.15180127 0.11660789 0.31972405 0.0024225493 311 82
0.1524186 0.11584607 0.31794146 0.0024663883 318 84
0.15384275 0.11570697 0.31790525 0.0024249034 311 82
0.15464707 0.11510939 0.31664577 0.0023378674 330 87
0.15572496 0.11472559 0.31600848 0.0023992278 319 84
0.15655474 0.11416863 0.31492698 0.0023307605 332 88
0.15750007 0.11370625 0.31413731 0.0023528019 323 85
0.15817091 0.11305686 0.31285998 0.0024884865 323 85
0.1585279 0.1121981 0.31102869 0.002492852 301 80
0.15932621 0.11166538 0.31012562 0.0026199983 277 73
0.16079353 0.11160727 0.31056768 0.0027239067 268 71
0.16035202 0.11023802 0.30738217 0.0027442179 284 75
-0.18162237 0.1120892 0.31677604 0.0056471499 104 27
-0.17900422 0.11141539 0.31498978 0.0058347159 103 27
-0.17771044 0.11156141 0.31519932 0.0054483106 110 29
-0.17675245 0.11192255 0.31578395 0.0059027891 107 28
-0.17589767 0.11235595 0.31641388 0.0051743821 118 31
-0.17578126 0.11327283 0.31830162 0.0053767194 116 30
-0.17500994 0.11378023 0.31897622 0.0061233584 104 27
-0.17405631 0.11417716 0.31931072 0.0055701155 115 30
-0.17257056 0.11422908 0.31867209 0.0049934564 119 31
-0.17083749 0.11411674 0.31758279 0.0051728454 120 31
-0.17034262 0.11483707 0.31882164 0.0052117957 112 29
-0.16968423 0.11545955 0.31979957 0.0049088225 125 33
-0.16863206 0.11582328 0.32007742 0.0050663664 126 33
-0.16776581 0.11632285 0.32075039 0.0045538051 137 36
-0.16724145 0.11707131 0.32212883 0.00426553 153 40
-0.16588008 0.11724267 0.32194227 0.0039799013 164 43
-0.16543533 0.1180716 0.32358533 0.0037721735 184 48
-0.16462615 0.1186542 0.32457659 0.0036424953 189 50
-0.16355971 0.11906119 0.32511446 0.0033382527 204 54
-0.16272724 0.11964837 0.32617292 0.0031325636 217 57
-0.16120842 0.11973774 0.32590568 0.0029551294 252 67
-0.16005011 0.12009946 0.32641345 0.0028145434 250 66
-0.15870476 0.1203269 0.32659069 0.0028734161 250 66
-0.15749606 0.12066378 0.32710099 0.0024974169 300 79
-0.1570203 0.12157532 0.32920408 0.002455221 305 81
-0.1558971 0.12199973 0.33002448 0.0024471385 323 85
-0.15402573 0.1218415 0.32930934 0.002353884 329 87
-0.1528842 0.12226346 0.33020389 0.0021583894 365 97
-0.15172309 0.12267896 0.3311224 0.0022104112 355 94
-0.15110691 0.12354929 0.33331043 0.0020560008 395 105
-0.14935789 0.12350262 0.33306798 0.0020016376 409 108
-0.14762984 0.12347242 0.33291468 0.0019883206 420 111
-0.14624643 0.12373311 0.3335906 0.0019029491 439 116
-0.14506549 0.12417319 0.334795 0.0019106081 460 122
-0.14453627 0.12518822 0.33759493 0.0018765711 452 120
-0.14265479 0.12504232 0.33730906 0.001953942 425 113
-0.14092988 0.12503178 0.33743206 0.0017809409 489 130
-0.13967127 0.12543976 0.3387278 0.0017732434 493 131
-0.1383234 0.12577675 0.33987466 0.0018134398 481 128
-0.13680832 0.12596831 0.3406699 0.0018070228 481 128
-0.1352331 0.12610863 0.34136581 0.0018658775 484 128
-0.13370128 0.12629358 0.34221998 0.0017762928 496 132
-0.13230824 0.12661622 0.34348312 0.0017061288 521 138
-0.1305349 0.12657864 0.34380212 0.0016897121 533 141
-0.12966698 0.12742986 0.34656787 0.0017087135 522 138
-0.12767 0.12717959 0.34636715 0.0016929096 534 142
-0.12562114 0.12686996 0.3460272 0.0016872258 548 145
-0.12384412 0.12683009 0.34644324 0.0016870176 556 147
-0.12256657 0.12730786 0.34829414 0.0016349757 567 150
-0.1210186 0.12751447 0.34942245 0.001690589 550 146
-0.11952877 0.12778932 0.35075369 0.0016413929 553 147
-0.11768894 0.12769255 0.35107687 0.0016085714 570 151
-0.11581869 0.12755938 0.35130757 0.0016338382 564 150
-0.11396807 0.12744409 0.3515926 0.0016749491 562 149
-0.11232538 0.12756133 0.35252324 0.0016554199 573 152
-0.11087786 0.12790741 0.35409045 0.0016962209 559 148
-0.1094099 0.12824069 0.35562554 0.001631565 558 148
-0.10785208 0.12847775 0.35689494 0.0016648299 544 144
-0.10564092 0.12793151 0.35598347 0.0016262996 565 150
-0.10390186 0.12794821 0.35663119 0.0017276994 542 144
-0.10228646 0.12812035 0.35770693 0.0017055017 523 139
-0.10059293 0.12819894 0.35851529 0.0017577744 500 133
-0.0989011 0.12828253 0.35933015 0.0018045398 474 126
-0.0973491 0.12855379 0.36066294 0.0019071224 442 117
-0.09569478 0.12869747 0.36162949 0.0020501935 401 106
-0.093908958 0.12866633 0.36209464 0.0022131924 367 97
-0.092146546 0.12866667 0.36263692 0.0024452787 323 85
-0.090270206 0.12850489 0.36270964 0.0025868982 297 79
-0.088133208 0.12795821 0.36168098 0.0026618666 265 70
-0.086437441 0.12804295 0.36242276 0.002665702 273 72
-0.085016653 0.128547 0.36434084 0.0028206012 268 71
-0.083620764 0.12911078 0.36641929 0.0029288607 257 68
-0.081777751 0.12899366 0.36655384 0.0028405678 244 64
-0.080059215 0.12907206 0.36723062 0.0028871223 244 64
-0.078299873 0.1290867 0.36771312 0.0030109182 239 63
-0.076372281 0.12881826 0.36737505 0.0028963205 237 63
-0.074636728 0.12886868 0.36793241 0.0029680987 236 62
-0.072539143 0.12828131 0.36665407 0.0032994875 223 59
-0.070434786 0.1276525 0.36524054 0.0030962932 218 58
-0.06865105 0.12758756 0.36542553 0.0032116584 211 56
-0.066717133 0.1272328 0.36476666 0.0033042394 201 53
-0.064847097 0.12698412 0.3643977 0.0038758169 184 48
-0.062379546 0.12551941 0.36052242 0.0042316988 157 41
-0.059908066 0.12396351 0.35636553 0.0056552207 105 27
-0.058068287 0.12366211 0.35579875 0.0087307189 60 15
-0.055601455 0.12196709 0.35120618 0.011812633 50 13
-0.053110048 0.12011148 0.34613198 0.012378362 47 12
nan nan nan 0 45 11
-0.048381552 0.11664562 0.33663598 0.012035863 44 11
-0.048535284 0.12101322 0.34948015 0.012253516 44 11
-0.047595542 0.12286696 0.35506633 0.012661499 42 11
-0.042037528 0.11249757 0.32530421 0.011964867 43 11
-0.041289918 0.11470203 0.3318772 0.010820472 47 12
-0.03966672 0.11455237 0.33163336 0.01097958 50 13
-0.038321503 0.11522621 0.33376542 0.010722577 54 14
-0.037133198 0.11645002 0.33748463 0.010508043 50 13
-0.034360066 0.11259058 0.32645962 0.010673624 49 13
-0.033401731 0.11459456 0.33242479 0.0098493826 55 14
-0.031665813 0.11399687 0.33083653 0.0097473161 55 14
-0.03002844 0.11371037 0.33014214 0.010390293 53 14
-0.02846604 0.11369193 0.3302179 0.010226284 53 14
-0.027053082 0.11430278 0.33211428 0.010050565 56 14
-0.025308782 0.11350271 0.32990333 0.0096449666 54 14
-0.023513786 0.11235565 0.32667452 0.0098733399 54 14
-0.021849705 0.11171725 0.32491577 0.009923446 64 17
-0.020433174 0.11234377 0.32682869 0.01010733 60 15
-0.018797617 0.11177004 0.32524288 0.0092105614 56 14
-0.01758348 0.11382249 0.3312932 0.0096063148 55 14
-0.015928283 0.11314147 0.32938144 0.0097001735 56 14
-0.014487088 0.11399756 0.33193788 0.0096218595 60 15
-0.012959332 0.11429714 0.33286762 0.0098970793 56 14
-0.011294376 0.11330266 0.33002174 0.0096116634 60 15
-0.0095165884 0.11067905 0.32242256 0.010322104 57 15
-0.0080267759 0.11104489 0.32352471 0.010264601 56 14
-0.006548747 0.11178298 0.32570535 0.0099456087 57 15
-0.0050207018 0.1118573 0.32594579 0.0093918908 62 16
-0.0034939428 0.11203815 0.32649037 0.010191632 57 15
-0.0019519646 0.111632 0.32531801 0.0096194986 55 14
-0.00042166514 0.11137139 0.32456347 0.0095854634 58 15
0.0010996641 0.11092624 0.32326475 0.0094438819 55 14
0.0026116571 0.11060222 0.32231286 0.0090015186 60 15
0.0041155531 0.11029914 0.32141575 0.0096535115 59 15
0.0056012874 0.10980282 0.31994948 0.0092331134 60 15
0.0070880647 0.10953274 0.31913629 0.0095136631 54 14
0.0086041214 0.10973045 0.31967986 0.009722448 58 15
0.010142107 0.11010744 0.32073912 0.0088827377 61 16
0.011738049 0.11093453 0.32310277 0.009668896 56 14
0.01330767 0.11135177 0.3242656 0.0094197802 60 15
0.014851832 0.11149205 0.32461509 0.010093396 54 14
0.016329655 0.11115462 0.32356709 0.0098348642 55 14
0.018042527 0.11233822 0.32693952 0.0085947672 62 16
0.019375145 0.1111543 0.32341495 0.0088300668 60 15
0.020626767 0.10971209 0.31913385 0.0096019572 63 16
0.022144919 0.10978715 0.31926033 0.0098844795 58 15
0.024049357 0.11164597 0.32456526 0.0093599139 55 14
0.025772439 0.1124909 0.32691294 0.0094267176 59 15
0.026750404 0.1101717 0.32005939 0.0092213834 62 16
0.027838724 0.10853047 0.3151722 0.0095401285 63 16
0.029487416 0.10912953 0.31678444 0.0089587355 63 16
0.031227032 0.10999102 0.31914908 0.0089435298 62 16
0.032623589 0.10962049 0.31793049 0.0098000411 59 15
0.033795841 0.10856203 0.31471071 0.0096846791 62 16
0.035574753 0.10945942 0.31715283 0.01095522 55 14
0.037809536 0.11163015 0.32327151 0.009670346 57 15
0.039562199 0.11226402 0.32492664 0.0092882095 58 15
0.040686969 0.11113536 0.32147256 0.0095740771 59 15
0.04165002 0.10966233 0.31701797 0.0096021984 62 16
0.04343982 0.11039287 0.3189258 0.0091598956 61 16
0.045108635 0.11077716 0.31982207 0.00915787 60 15
0.04676554 0.11110812 0.32055354 0.0088876234 62 16
0.048339449 0.11122724 0.3206633 0.0091458391 59 15
0.049357887 0.11010005 0.31717238 0.0090075433 61 16
0.051071275 0.11054389 0.31819895 0.0089921886 61 16
0.05292061 0.11124799 0.3199617 0.0090058548 61 16
0.054973491 0.11232854 0.32279262 0.0089492574 60 15
0.055680089 0.11067429 0.31775555 0.0092080887 62 16
0.056842506 0.10998973 0.31549808 0.0090701235 57 15
0.058932077 0.11108825 0.31834331 0.0085880905 64 17
0.063950621 0.11751363 0.33642128 0.0086165518 70 18
0.065929987 0.1181759 0.33796859 0.0059910715 95 25
0.068989806 0.12069666 0.34480938 0.0049773613 122 32
0.071045101 0.12138317 0.34638786 0.0040678335 162 43
0.072977744 0.12183347 0.34727633 0.003821644 175 46
0.07519421 0.12272691 0.34941089 0.0034117131 199 52
0.076799355 0.12260531 0.34864041 0.0032001184 213 56
0.077799566 0.12154385 0.34518892 0.0030243467 229 60
0.080950819 0.12381697 0.35119081 0.002958667 232 61
0.083067387 0.12444668 0.35250807 0.0030005085 237 63
0.084195554 0.12360007 0.34963199 0.0029981248 250 66
0.085380517 0.1228686 0.34707546 0.0028058134 256 68
0.087622762 0.12365746 0.34880149 0.0027389801 258 68
0.088705264 0.12281079 0.3459028 0.0026812919 270 71
0.090384647 0.12280662 0.34536952 0.0028711427 260 69
0.092436895 0.12329993 0.34622267 0.002702415 264 70
0.095395081 0.1249623 0.35033888 0.0026345113 273 72
0.096894898 0.12468935 0.34901378 0.0026557033 277 73
0.097599275 0.12341996 0.34489799 0.0027297931 278 73
0.099772826 0.12402003 0.34600174 0.00246585 301 80
0.10222629 0.12494209 0.34799027 0.0024900509 297 79
0.10388944 0.12488379 0.34723884 0.0025172043 307 81
0.10459971 0.12370051 0.34336114 0.0023816656 319 84
0.10639223 0.12381441 0.34308669 0.0024356844 322 85
0.10837572 0.12414349 0.34340543 0.0023330522 332 88
0.11019339 0.12427536 0.34317741 0.0023653619 323 85
0.1125531 0.12500529 0.34459952 0.0024095327 328 87
0.11447416 0.12523343 0.34463876 0.0023670306 318 84
0.11559363 0.12459084 0.34229094 0.0023494195 327 87
0.11730365 0.12459422 0.34173033 0.0023589625 332 88
0.11932311 0.12492144 0.34206834 0.0023573288 326 86
0.12098609 0.12487151 0.34138703 0.0023563425 343 91
0.1223791 0.1245482 0.33997715 0.0022279196 353 93
0.12400492 0.12446744 0.3392508 0.0022817068 338 89
0.12577842 0.12453513 0.33895174 0.0022958028 337 89
0.12759042 0.12463859 0.3387745 0.0023200091 334 88
0.12921715 0.12456074 0.3381322 0.0023515902 325 86
0.13072227 0.12436922 0.33721259 0.0022782718 343 91
0.13219281 0.12415015 0.33625209 0.0023701303 344 91
0.13373391 0.12400206 0.33551982 0.0022427288 347 92
0.13534465 0.12392144 0.33500746 0.00220202 354 94
0.13595538 0.12293856 0.33209682 0.0022415665 350 93
0.13726951 0.12260802 0.33099091 0.0022078489 358 95
0.13845117 0.12216857 0.3296335 0.0022531562 363 96
0.13972722 0.1218219 0.32856962 0.0021296609 380 101
0.14126328 0.12170744 0.32817543 0.0022129209 375 99
0.14279282 0.12159011 0.32781723 0.0020661631 391 104
0.14410099 0.12128916 0.32700795 0.0021364812 375 99
0.14571933 0.12125316 0.32695705 0.0020326802 404 107
0.14720677 0.12111026 0.32666183 0.0021793216 384 102
0.14828196 0.12063516 0.32551372 0.0021576297 366 97
0.14817105 0.11921623 0.32185948 0.0021241282 379 100
0.14907306 0.11863433 0.32050407 0.0020944502 382 101
0.15002429 0.11810372 0.31932649 0.0021735386 381 101
0.15057968 0.11727615 0.31738314 0.0021056959 395 105
0.15196316 0.11710419 0.31725082 0.0021033485 381 101
0.15324637 0.11685937 0.31695822 0.0022163668 378 100
0.15438643 0.11651154 0.31642154 0.0022288505 366 97
0.155279 0.11598598 0.31543526 0.0022069386 362 96
0.15617116 0.1154708 0.31450796 0.0021862374 366 97
0.15679428 0.11476899 0.31310102 0.0022490004 343 91
0.15737556 0.11405081 0.31167555 0.0022189601 362 96
0.15781628 0.11324587 0.31003693 0.0023509192 345 91
0.15947469 0.11332189 0.31083655 0.0024243691 312 83
0.16050854 0.11295694 0.31045407 0.0025199202 297 79
0.16179179 0.11277276 0.3105931 0.0024478296 303 80
-0.18911381 0.11831149 0.32955492 0.006123798 93 24
-0.1808093 0.11408065 0.31813568 0.0059443098 98 26
-0.17791747 0.1132215 0.31572729 0.0054463311 108 28
-0.17613135 0.11305716 0.31497273 0.0054116887 110 29
-0.17597251 0.11394364 0.31694326 0.0053520575 111 29
-0.17681327 0.11549874 0.32063073 0.0060068988 102 27
-0.17638202 0.11624322 0.32197553 0.00578517 102 27
-0.17390667 0.11564185 0.31954989 0.0054201316 109 29
-0.17260464 0.11581684 0.31925583 0.0057383738 113 30
-0.17086612 0.11569948 0.31815514 0.0055872081 105 27
-0.16997851 0.11616147 0.31865537 0.0057338201 105 27
-0.17181399 0.11851033 0.32432991 0.0058831614 101 26
-0.16892327 0.11761278 0.32113141 0.0056581791 106 28
-0.16802709 0.11810005 0.3217403 0.0055097532 109 29
-0.16906442 0.11996872 0.3261238 0.0052148746 116 30
-0.16796407 0.12034198 0.32645646 0.0053847469 119 31
-0.16589998 0.12002529 0.32494575 0.0049835355 135 35
-0.16476077 0.12037808 0.32527703 0.0044627041 139 36
-0.16434835 0.12127422 0.32710111 0.0045613968 135 35
-0.16281785 0.12135503 0.32675341 0.0045518945 153 40
-0.16152516 0.12161659 0.32692409 0.0044334522 151 40
-0.15927516 0.1211553 0.3251867 0.0039215139 163 43
-0.15937808 0.12249281 0.32830954 0.0036189314 178 47
-0.15862976 0.1231973 0.32976481 0.0035100298 206 54
-0.15748921 0.12360887 0.33047017 0.002955178 238 63
-0.1563997 0.12406977 0.33134383 0.002892103 239 63
-0.15481092 0.12414031 0.33121353 0.0027637663 273 72
-0.1527124 0.12379914 0.33002633 0.0025681264 295 78
-0.15184377 0.12445851 0.33154756 0.0025013355 299 79
-0.15176854 0.12579022 0.33489916 0.0024083231 327 87
-0.14992601 0.12567075 0.33442861 0.0023083254 350 93
-0.14793165 0.12541983 0.33365256 0.0022323206 374 99
-0.14626016 0.12543996 0.33364183 0.0020548254 395 105
-0.14599922 0.12668452 0.33693171 0.0020703895 391 104
-0.14444332 0.12682165 0.33732048 0.0020789837 389 103
-0.14242435 0.12655059 0.33666748 0.0020143045 407 108
-0.14076503 0.12659641 0.33690083 0.0018939527 444 118
-0.13933656 0.12685353 0.33773941 0.0019760148 414 110
-0.13816079 0.12734997 0.33925804 0.0019034133 444 118
-0.13642158 0.12733303 0.33945033 0.0018306049 487 129
-0.13491926 0.12753959 0.34027779 0.00183951 477 126
-0.13346222 0.12779485 0.34127355 0.0018842331 467 124
-0.1319855 0.12803772 0.34227315 0.0018084646 484 128
-0.13076514 0.12853904 0.34399897 0.0018129888 483 128
-0.12931725 0.12882718 0.34518808 0.001744753 503 133
-0.12754884 0.12879954 0.34556067 0.0017647099 517 137
-0.12561184 0.12859853 0.34549356 0.0017646694 525 139
-0.12434079 0.12908322 0.34729341 0.0016705318 540 143
-0.12253008 0.12901349 0.3476243 0.001736241 524 139
-0.12098612 0.12922667 0.34873638 0.001676532 537 142
-0.11930001 0.12929204 0.34946662 0.0016439811 554 147
-0.11745659 0.12918633 0.34974748 0.001621312 575 153
-0.11563475 0.1291015 0.35009471 0.0016637333 551 146
-0.1140976 0.12933685 0.35131916 0.0016778312 541 144
-0.11267953 0.12971656 0.35294458 0.0016085706 577 153
-0.11115939 0.12998891 0.35428482 0.001627682 558 148
-0.10940072 0.1299866 0.35487962 0.0016704721 541 144
-0.10789053 0.13028428 0.35629475 0.0016808879 545 145
-0.10591821 0.13002452 0.35618401 0.0015801559 585 155
-0.10394696 0.12975734 0.35604709 0.0016932945 547 145
-0.10220282 0.12976936 0.35667047 0.0017051019 552 146
-0.10052048 0.12986162 0.35750893 0.0016678926 547 145
-0.098866694 0.12999471 0.35845363 0.0017067564 541 144
-0.097265042 0.1302024 0.3595973 0.0016952816 526 140
-0.095650017 0.13039953 0.36070457 0.0017680628 512 136
-0.094042316 0.13061421 0.36185226 0.0018689345 475 126
-0.092136167 0.13041468 0.36184207 0.0019249907 451 120
-0.090146244 0.13008645 0.36146152 0.0019930347 435 115
-0.088172019 0.12976828 0.36109474 0.0020708228 391 104
-0.086445257 0.12980883 0.36171311 0.0021413052 377 100
-0.08495567 0.13021454 0.36333847 0.0022444872 359 95
-0.083249025 0.13029771 0.36405319 0.0024990179 314 83
-0.081630178 0.13052484 0.36515868 0.002570193 279 74
-0.080184139 0.13104443 0.36707202 0.0028830129 263 70
-0.078487605 0.13116889 0.3678678 0.0027812233 254 67
-0.076650195 0.13105819 0.36799106 0.0029316435 249 66
-0.074782588 0.13088942 0.36793733 0.0028574255 244 64
-0.072785228 0.13047986 0.367192 0.0029104804 237 63
-0.071060136 0.13055016 0.36778304 0.0029258749 241 64
-0.069391988 0.13073133 0.36867434 0.0030327954 229 60
-0.067610428 0.13070273 0.36896184 0.0031046432 221 58
-0.065849736 0.13071401 0.36934921 0.0031438563 221 58
-0.06419865 0.13094951 0.37035835 0.0033804371 211 56
-0.061539967 0.12908481 0.36541122 0.0035402386 186 49
-0.059881616 0.12927079 0.36625287 0.0036609713 172 45
-0.057862911 0.12866668 0.36484325 0.0039410978 163 43
-0.056492556 0.12951148 0.36753109 0.0043578171 147 39
-0.055679537 0.13172887 0.3741093 0.0049611623 122 32
-0.05274139 0.12889899 0.36634067 0.0060930145 94 25
-0.050518196 0.12768278 0.363139 0.0077882418 74 19
-0.048964359 0.12813216 0.36466202 0.0097636944 58 15
nan nan nan 0 46 12
-0.043292455 0.1219126 0.34739748 0.012640548 46 12
-0.041563552 0.12167455 0.34692213 0.0119707 46 12
-0.039896429 0.12160518 0.3469179 0.012666696 46 12
-0.038421016 0.12213928 0.34862655 0.011624077 42 11
-0.036606412 0.12159466 0.34724703 0.011959898 44 11
-0.034412727 0.11968049 0.3419441 0.012457723 43 11
-0.032780986 0.11962821 0.34194943 0.011910489 47 12
-0.030928582 0.11872346 0.33950841 0.013509694 44 11
-0.02923435 0.11836009 0.33860567 0.011876463 48 12
-0.027653571 0.11844059 0.33896434 0.012117834 46 12
-0.025756776 0.1170943 0.33523041 0.011697564 48 12
-0.024038274 0.11643536 0.33345458 0.011865702 51 13
-0.022477219 0.11650018 0.33374324 0.010510892 54 14
-0.020805079 0.11595563 0.3322784 0.010662648 49 13
-0.019277347 0.11619278 0.3330459 0.0098215658 54 14
-0.01770342 0.11616883 0.33305791 0.010183839 53 14
-0.01612404 0.116101 0.33293688 0.011104811 52 13
-0.01463932 0.11677358 0.33493239 0.010457804 58 15
-0.013110644 0.11721575 0.33626053 0.0094058597 57 15
-0.011378697 0.11571233 0.33199993 0.0094799688 54 14
-0.0097409869 0.11484084 0.32954445 0.0099376729 55 14
-0.0081532011 0.11433913 0.32814285 0.0093771275 60 15
-0.0067062317 0.11603934 0.33305433 0.0097068418 54 14
-0.005053957 0.11414075 0.32762977 0.0090534622 63 16
-0.0035245928 0.11456931 0.32887822 0.0094834352 57 15
-0.0019708404 0.11425561 0.32798937 0.009022234 59 15
-0.00042699598 0.11432441 0.328192 0.010344775 64 17
0.0011160884 0.11412533 0.32761902 0.0090726204 62 16
0.0026552046 0.1139869 0.32721362 0.0092115765 61 16
0.0041662934 0.11318868 0.32490772 0.0091534723 59 15
0.0056754341 0.11278048 0.32371515 0.009191026 64 17
0.0071965382 0.11273251 0.32355002 0.0089653088 63 16
0.0086776298 0.11218402 0.32194206 0.0091206543 58 15
0.01023312 0.11261748 0.32314545 0.0093413126 58 15
0.011894352 0.11395172 0.3269262 0.0092024198 64 17
0.013281953 0.1126591 0.32316381 0.0090286303 65 17
0.014751838 0.11225851 0.32195428 0.0097961947 56 14
0.016443409 0.11346231 0.32533881 0.0088776583 58 15
0.018036749 0.11384074 0.32634878 0.0086056115 63 16
0.019494949 0.11337379 0.32492831 0.0084478883 66 17
0.020785369 0.11207025 0.32110435 0.010056606 62 16
0.022135369 0.11124319 0.31864023 0.0093959272 58 15
0.023595139 0.11103792 0.31795079 0.0092444699 57 15
0.025616813 0.11334338 0.32444128 0.0084630959 62 16
0.027042434 0.11290019 0.32305458 0.0086207865 64 17
0.028306229 0.11186484 0.3199673 0.0089990674 67 17
0.029755598 0.11163066 0.31916538 0.0094757648 64 17
0.031224322 0.11148819 0.31861824 0.0099691758 60 15
0.032809306 0.11175483 0.31923211 0.0087759774 66 17
0.034330901 0.11179158 0.31918079 0.0092527345 58 15
0.036066808 0.1124937 0.32101971 0.010104023 58 15
0.038088523 0.1139944 0.32512569 0.0091748359 65 17
0.039958224 0.11494116 0.32763907 0.0094238147 60 15
0.040932655 0.11333815 0.32287654 0.0094803171 56 14
0.042844862 0.11435372 0.32556564 0.0094389617 58 15
0.043668866 0.11249526 0.32006463 0.0089860838 58 15
0.045443833 0.11312921 0.32164782 0.0094821556 59 15
0.047501378 0.11440246 0.32503518 0.0098023415 53 14
0.049210649 0.11478308 0.3258732 0.0098078381 59 15
0.051090751 0.11552673 0.32772937 0.009526792 52 13
0.052767243 0.11577953 0.32818061 0.0091811083 60 15
0.054482985 0.11610139 0.32881579 0.0095996028 57 15
0.056024902 0.1160452 0.3283689 0.0097549148 54 14
0.058247399 0.11736339 0.33179694 0.009366706 55 14
0.061360013 0.12035764 0.33994091 0.0084273107 68 18
0.064052328 0.12239411 0.34535465 0.0063511478 94 25
0.066472776 0.12382164 0.3490285 0.0045400253 135 35
0.068014339 0.12358213 0.34798786 0.0037100816 170 45
0.070670448 0.1253307 0.35252851 0.0032343073 209 55
0.07224644 0.1251267 0.35155994 0.003275438 227 60
0.073839918 0.12496162 0.35068941 0.0030282366 234 62
0.075944901 0.12565021 0.35220045 0.002916577 242 64
0.077797875 0.12590086 0.35246816 0.0029073339 251 66
0.07972011 0.12625046 0.35299844 0.0028178198 258 68
0.082054958 0.12722516 0.35525927 0.0028892995 256 68
0.083545178 0.12687716 0.35381204 0.0028579454 262 69
0.085060082 0.12657988 0.35249656 0.0027392393 269 71
0.086563461 0.12627749 0.35115749 0.002614127 280 74
0.08801984 0.12591958 0.34965524 0.0027965195 272 72
0.090132073 0.12649569 0.35073456 0.0027868962 275 73
0.092096128 0.12684627 0.35117432 0.0027061189 287 76
0.0937787 0.12680343 0.35051358 0.0026689356 290 77
0.09579578 0.12720631 0.35107419 0.0024922604 295 78
0.097497635 0.12718379 0.35045052 0.0024969769 296 78
0.09896636 0.1268632 0.34899947 0.0024864946 298 79
0.10077004 0.12697557 0.34873408 0.0023939342 315 83
0.10303834 0.12765984 0.35003033 0.0023716602 314 83
0.10440902 0.12722778 0.34826061 0.0024061874 320 85
0.10538394 0.12633528 0.3452341 0.002292749 335 89
0.10681591 0.1260104 0.34376338 0.0023271502 335 89
0.10894826 0.12650901 0.34453925 0.0022896274 338 89
0.1110523 0.12695985 0.34518325 0.0023219236 338 89
0.11302076 0.12724428 0.34537625 0.0022621457 341 90
0.11488847 0.12740852 0.34524786 0.0023770754 337 89
0.1166739 0.12747799 0.34487098 0.0023001244 335 89
0.11788994 0.12693235 0.34284368 0.0022547261 347 92
0.11925361 0.12655905 0.34129986 0.0022423926 344 91
0.12097319 0.12656869 0.34080693 0.0021411423 371 98
0.12248329 0.12636194 0.3397513 0.0020514068 396 105
0.1240044 0.12617208 0.33876446 0.0020334122 404 107
0.1255753 0.12603733 0.33795106 0.0019988925 422 112
0.12715043 0.12591039 0.33718628 0.0019889723 420 111
0.12860996 0.12567385 0.33615848 0.0020521143 428 113
0.13025397 0.12562135 0.33565542 0.0019709819 433 115
0.13162574 0.12531108 0.33449829 0.0020103012 420 111
0.13296635 0.12497938 0.33332109 0.0019691833 434 115
0.13444334 0.12478257 0.33254227 0.0019139396 447 118
0.13683906 0.12543279 0.33405903 0.0019643989 422 112
0.1374913 0.12448852 0.33136991 0.0019150303 441 117
0.13800518 0.12344331 0.3284559 0.0018901394 462 122
0.13916425 0.12299327 0.327169 0.0018543702 458 121
0.14076759 0.12294187 0.3269853 0.0018159713 493 131
0.14245018 0.12296009 0.32702968 0.0017964148 481 128
0.143748 0.12264959 0.32624289 0.0018107322 477 126
0.14530477 0.12256458 0.32609883 0.0018360794 485 129
0.14657228 0.12224024 0.3253606 0.0018976044 460 122
0.1468785 0.12113039 0.32257223 0.0018836498 453 120
0.14760743 0.12038974 0.32080603 0.0019599397 429 114
0.1486879 0.11994886 0.31987721 0.0019616541 422 112
0.14922972 0.11908762 0.31786454 0.0019430157 445 118
0.15011632 0.11851697 0.31666285 0.0019862747 429 114
0.15146846 0.11832202 0.31650081 0.0020307479 415 110
0.1530003 0.11827005 0.31675738 0.0020557351 415 110
0.1541795 0.11794941 0.316329 0.0021171011 384 102
0.15508157 0.11742547 0.31538713 0.0022132099 372 99
0.15524797 0.11636075 0.31301984 0.002189189 359 95
0.15593359 0.11570264 0.31177148 0.0022018205 358 95
0.15724808 0.11551961 0.31183061 0.002238472 349 92
0.15856402 0.1153412 0.31193054 0.0024016786 332 88
0.15967619 0.11501951 0.31166944 0.0026069332 298 79
0.16024818 0.11431864 0.3104032 0.0026138998 301 80
0.15902361 0.11236179 0.30573827 0.0025813831 296 78
-0.18413945 0.11675636 0.32042298 0.0071065929 77 20
-0.18264787 0.1167981 0.32118645 0.0063270684 88 23
-0.17870258 0.11525799 0.31716728 0.005657135 106 28
-0.17685348 0.11505485 0.3164838 0.0057901484 102 27
-0.17644288 0.11579221 0.31813464 0.0056009954 106 28
-0.17646255 0.11682745 0.32042423 0.0061834091 102 27
-0.17552175 0.11723957 0.32088712 0.0058775377 103 27
-0.17588763 0.11853974 0.32370603 0.0055722711 105 27
-0.1733676 0.11790092 0.32119393 0.0056434348 104 27
-0.17205235 0.1180772 0.32089517 0.0060282839 94 25
-0.17330664 0.12003646 0.32543159 0.0058381148 100 26
-0.1730638 0.12098564 0.32722315 0.0060787499 98 26
-0.17064025 0.12041385 0.32491687 0.0061264597 101 26
-0.16846584 0.12000867 0.32308808 0.0056918259 102 27
-0.16869582 0.12132494 0.32591248 0.005864731 112 29
-0.16823448 0.1221647 0.32747024 0.0053826114 111 29
-0.16664298 0.12219217 0.32687327 0.0049901297 117 31
-0.1650276 0.12220251 0.32625884 0.0055498551 119 31
-0.16482899 0.12327262 0.32849813 0.0048813149 129 34
-0.16472815 0.12443817 0.33101186 0.0050864951 120 31
-0.16067888 0.12261437 0.32560894 0.0047126072 128 34
-0.16130689 0.124359 0.32971585 0.0050287489 129 34
-0.15958835 0.12431204 0.32909995 0.0048498614 130 34
-0.15894315 0.12510893 0.33075085 0.0042558592 148 39
-0.15768293 0.12543349 0.33118567 0.0040413756 155 41
-0.15575466 0.1252279 0.33025801 0.0039208741 166 44
-0.15418929 0.12531278 0.33013549 0.0038387061 178 47
-0.1528821 0.12561166 0.33061522 0.0035438775 185 49
-0.15141019 0.12578031 0.33079156 0.0033114245 206 54
-0.15161431 0.12736066 0.33471847 0.0032128363 222 59
-0.15056401 0.12791115 0.33597735 0.0030652871 241 64
-0.14835265 0.12747654 0.33469152 0.0025629904 285 75
-0.14745554 0.1281743 0.33642173 0.0024023405 314 83
-0.14615931 0.12853739 0.33731639 0.0024001547 318 84
-0.14428835 0.12839767 0.3369351 0.002144817 373 99
-0.14246693 0.12829921 0.33670554 0.0021876958 367 97
-0.14104193 0.12855971 0.33746111 0.0021757346 364 96
-0.13962069 0.12883006 0.33828548 0.0021886381 368 97
-0.13790259 0.12882981 0.33844128 0.0021062887 398 105
-0.13653634 0.12916243 0.33951268 0.0020021051 424 112
-0.13477507 0.12912506 0.33965155 0.0019955772 429 114
-0.13349004 0.12954894 0.3410424 0.0019581041 425 113
-0.13220105 0.12998003 0.34249043 0.0019772083 453 120
-0.1305927 0.13010439 0.34316629 0.0018863952 455 121
-0.12916571 0.13041522 0.34436762 0.0017914355 489 130
-0.12766126 0.13065523 0.34541395 0.001794048 495 131
-0.12625092 0.13099958 0.34676594 0.0017608178 503 133
-0.12441882 0.1309098 0.34699503 0.0016980243 526 140
-0.12262667 0.13086011 0.34735289 0.0017545699 502 133
-0.12092896 0.13091122 0.34799868 0.0017758699 507 134
-0.1191003 0.13082001 0.34828383 0.0017760824 511 136
-0.11713224 0.13057067 0.34816179 0.0016886242 533 141
-0.11543348 0.13061853 0.34884411 0.0017214639 530 141
-0.11398925 0.13096029 0.35032344 0.0016903887 554 147
-0.11297204 0.1318109 0.35317719 0.0016702344 537 142
-0.1110082 0.13156644 0.35310522 0.0017265632 512 136
-0.10933915 0.13166916 0.35396823 0.0016550428 551 146
-0.10756875 0.13165119 0.35450897 0.00173007 540 143
-0.10585579 0.13170405 0.35524058 0.0017237337 515 137
-0.10396469 0.13153337 0.35536712 0.0016747083 538 143
-0.10219791 0.13151678 0.35590589 0.001652051 550 146
-0.10066138 0.13180111 0.35725558 0.0016660726 542 144
-0.09890753 0.13180593 0.35784313 0.0016676348 570 151
-0.09738528 0.13212514 0.35927862 0.001737054 535 142
-0.095784396 0.13234746 0.36044499 0.0016697462 538 143
-0.093908802 0.13219145 0.36057252 0.0016697019 539 143
-0.092014469 0.13200256 0.36059916 0.0016880318 538 143
-0.090162113 0.13186771 0.360762 0.0017260558 514 136
-0.088469848 0.13196631 0.36155248 0.0017484074 514 136
-0.086664259 0.13189642 0.36187026 0.0017589524 496 132
-0.08484292 0.13179919 0.36210069 0.0017523909 503 133
-0.083226301 0.13202256 0.36320043 0.0018247906 469 124
-0.081757605 0.13249533 0.3649765 0.0018751229 455 121
-0.080223881 0.13288127 0.36650401 0.0020855567 384 102
-0.078331247 0.13267672 0.36639076 0.0022806674 359 95
-0.076482534 0.13253883 0.36644787 0.0024411813 326 86
-0.074657254 0.13243598 0.36658821 0.002470104 307 81
-0.073022567 0.13267446 0.367661 0.0026384457 284 75
-0.071392328 0.13293304 0.36877826 0.002818031 255 67
-0.069589764 0.13287576 0.36900708 0.0028686689 245 65
-0.067927808 0.13309097 0.36998051 0.0030804272 233 62
-0.066431582 0.13365114 0.37190241 0.0029500388 238 63
-0.064842045 0.13404931 0.37336361 0.003187435 233 62
-0.062920481 0.13376419 0.37290955 0.0031331719 218 58
-0.060666379 0.13273484 0.37036526 0.0031861449 218 58
-0.058401212 0.13161871 0.36756161 0.0033194297 215 57
-0.056721728 0.13179426 0.36835125 0.0032681767 202 53
-0.055491421 0.13305807 0.37217399 0.0033229641 199 52
-0.053893853 0.13349564 0.37367782 0.0034906475 186 49
-0.05126651 0.13132523 0.36786681 0.0037179056 172 45
-0.050061546 0.13277379 0.37218052 0.0038034108 169 44
-0.048583705 0.13357827 0.3746821 0.0042943731 153 40
-0.044531662 0.12709698 0.3567268 0.0044529163 139 36
-0.043733474 0.12975705 0.36441168 0.0047456431 131 34
-0.04100661 0.12667818 0.35596856 0.0053574773 110 29
-0.039642211 0.12772454 0.35910442 0.0065513863 85 22
-0.037735384 0.12703872 0.3573612 0.0087679587 67 17
-0.035603583 0.12549543 0.35319331 0.0094762072 54 14
-0.034075215 0.1260318 0.35486791 0.012916558 47 12
-0.03209516 0.12486654 0.35174137 0.013065008 44 11
-0.030005433 0.12312371 0.34697571 0.012345149 44 11
-0.028390585 0.12324054 0.34744027 0.012725401 41 10
-0.026450865 0.12187485 0.3437157 0.011963269 49 13
-0.024657175 0.12104723 0.3414982 0.011038214 46 12
-0.022929331 0.1204496 0.33992019 0.012701532 42 11
-0.021439018 0.12110367 0.34186688 0.012166235 43 11
-0.019868562 0.12137472 0.34272528 0.012451738 48 12
-0.018064763 0.12014196 0.33932903 0.0115283 47 12
-0.016376052 0.11950918 0.33761847 0.012106385 45 11
-0.014924971 0.12066109 0.34094274 0.010964833 49 13
-0.013391702 0.12134662 0.3429428 0.01123622 45 11
-0.011570848 0.11925655 0.33709064 0.010891884 49 13
-0.009783729 0.11690357 0.3304863 0.010013557 53 14
-0.008311226 0.11813042 0.33399463 0.011041734 50 13
-0.006702499 0.1175421 0.33236411 0.011312117 48 12
-0.0051182946 0.11715596 0.33129817 0.011645869 51 13
-0.0035503427 0.11696599 0.33077991 0.010018361 55 14
-0.0019868023 0.11673758 0.33014598 0.010675929 51 13
-0.00043123993 0.11702109 0.33095309 0.010275727 50 13
0.0011314321 0.11725785 0.33162117 0.010432365 53 14
0.0027004457 0.1174958 0.33228579 0.010311742 53 14
0.0042488286 0.11699096 0.33084285 0.010261544 51 13
0.0058400542 0.11762015 0.3326 0.010036419 58 15
0.0074948277 0.11899185 0.33644938 0.0097944122 50 13
0.0090565598 0.11866513 0.33548933 0.010595546 52 13
0.010698485 0.11933009 0.33732563 0.009841077 57 15
0.012106996 0.11755644 0.33226186 0.010031795 55 14
0.013597275 0.11689237 0.33032817 0.01090985 55 14
0.015028798 0.11591173 0.32749361 0.010579425 55 14
0.016626805 0.11627826 0.32845858 0.010205112 55 14
0.01813066 0.11597999 0.32753822 0.010069081 56 14
0.019637452 0.11574592 0.32679239 0.0097669112 63 16
0.021295106 0.11637036 0.32846272 0.0092767496 58 15
0.022989389 0.11709655 0.33041158 0.0099168587 52 13
0.024357392 0.11617418 0.32770121 0.011137056 52 13
0.026035041 0.11675065 0.32921138 0.0099157011 54 14
0.027763078 0.11747529 0.33113015 0.01106361 54 14
0.028989995 0.11611537 0.32716581 0.010313023 58 15
0.030214285 0.11488336 0.32355681 0.0095418561 61 16
0.031639025 0.11449564 0.32231948 0.010402204 57 15
0.033097964 0.11426164 0.32150745 0.0099377576 52 13
0.034825884 0.11493599 0.32324231 0.010689587 53 14
0.036380179 0.11500463 0.32326409 0.010533179 52 13
0.038661901 0.11727424 0.32946005 0.01083184 49 13
0.040945537 0.11937296 0.33515993 0.011906536 51 13
0.042877186 0.12032682 0.33763096 0.0099396333 55 14
0.042680703 0.11545509 0.32375312 0.01066412 53 14
0.045370717 0.11845896 0.33195338 0.011611708 50 13
0.046411619 0.11709989 0.32791469 0.011158163 53 14
0.049429592 0.12065522 0.33762342 0.010725527 52 13
0.051238813 0.12112892 0.33869019 0.011193556 51 13
0.053386461 0.12234925 0.34183043 0.010354392 53 14
0.055222046 0.12280323 0.34281498 0.010326345 53 14
0.056777056 0.12262511 0.34202337 0.010180381 53 14
0.058539554 0.12289251 0.34246299 0.0087021058 63 16
0.061059911 0.12469304 0.34715834 0.0059386734 100 26
0.064040095 0.12731224 0.35410967 0.0045887846 146 38
0.066276826 0.12835632 0.3566581 0.0034910089 192 51
0.068107001 0.1285803 0.35691202 0.0031200293 220 58
0.069769837 0.12848513 0.35626727 0.0030096842 238 63
0.071500085 0.12851569 0.35595912 0.0028345052 253 67
0.073256105 0.12859003 0.35575956 0.0028667946 255 67
0.075396992 0.12932113 0.35736188 0.002787024 264 70
0.076850533 0.12886694 0.35567561 0.002673809 274 72
0.078615569 0.12894352 0.35544315 0.002656959 278 73
0.080746785 0.12960456 0.35680699 0.0027722227 270 71
0.082995608 0.13042273 0.35858589 0.0027919689 267 71
0.084535904 0.13011675 0.35726032 0.0026201664 275 73
0.086014837 0.12973055 0.35570535 0.0025632319 296 78
0.087628663 0.12955898 0.35472974 0.0026500158 291 77
0.088987909 0.12902494 0.35275361 0.002572885 292 77
0.090607718 0.1288818 0.35183853 0.0025125712 297 79
0.092923261 0.12971514 0.35357666 0.0024892183 301 80
0.093885645 0.12866367 0.35016897 0.0024473129 304 80
0.095489427 0.12851314 0.34921014 0.0023866065 319 84
0.0980464 0.12962815 0.35167867 0.0023950813 321 85
0.099703223 0.12953502 0.35085872 0.002348321 326 86
0.10162729 0.12978639 0.35096595 0.0023115412 329 87
0.1037308 0.13025463 0.35165265 0.0023505951 329 87
0.10513183 0.12983988 0.34995273 0.0023128588 348 92
0.10569505 0.12842064 0.34555265 0.0022403656 349 92
0.10727937 0.12826751 0.3445673 0.0022490716 366 97
0.10930241 0.12863553 0.34498352 0.0021457812 377 100
0.11140717 0.12908684 0.34562409 0.00219086 382 101
0.11322335 0.12919512 0.34535044 0.0020629638 388 103
0.11517503 0.12945245 0.34548262 0.0020081988 411 109
0.11676499 0.12930164 0.3445363 0.0019761531 420 111
0.11837199 0.12917382 0.34366617 0.0019298948 439 116
0.11930621 0.12832601 0.34090057 0.0018984381 440 117
0.12081763 0.12811424 0.33984727 0.0018761933 483 128
0.12237074 0.12795198 0.33894792 0.0018743608 472 125
0.12394307 0.12781398 0.33813745 0.0017828835 491 130
0.12556019 0.12772529 0.33748418 0.0016926945 526 140
0.12681431 0.12727466 0.33590457 0.001718158 522 138
0.12803084 0.12679872 0.3342914 0.0016792795 543 144
0.12971742 0.12679461 0.33395609 0.0017175518 524 139
0.13142154 0.12680754 0.33370024 0.0016955052 532 141
0.13262402 0.1263423 0.33222324 0.0017421584 527 140
0.13402928 0.12607944 0.33131772 0.0017033842 529 140
0.1355768 0.12595528 0.33081639 0.0016927925 532 141
0.13676113 0.12550084 0.32948846 0.001749731 503 133
0.13779214 0.12491843 0.32786661 0.0017574972 506 134
0.13932168 0.12479647 0.32749525 0.0017824329 511 136
0.14066632 0.12451372 0.32674414 0.0016904192 530 141
0.14166035 0.12393084 0.32524753 0.0017026633 525 139
0.14348693 0.12408137 0.32571772 0.0017707872 513 136
0.1446965 0.12370096 0.32483611 0.0018291158 468 124
0.14537801 0.12288279 0.32284531 0.0018701272 457 121
0.1464892 0.12244201 0.32188526 0.0018655816 456 121
0.14742011 0.1218619 0.32059747 0.0019190111 455 121
0.14832284 0.12127142 0.31931958 0.0019186136 448 119
0.14926721 0.12072735 0.31819984 0.0019260785 435 115
0.15000857 0.12003244 0.31671676 0.0019954131 410 109
0.15125705 0.11975371 0.31636551 0.0020588087 412 109
0.15268143 0.11961861 0.31642801 0.0022023881 386 102
0.15384983 0.1192878 0.31600574 0.0022053472 373 99
0.1546586 0.11868782 0.31490025 0.0022042836 373 99
0.15477113 0.11757106 0.31244883 0.0021932218 359 95
0.15580915 0.1171727 0.31193107 0.002293156 348 92
0.15712705 0.11699069 0.31201658 0.0023305083 340 90
0.15833604 0.11673191 0.3119241 0.002360638 322 85
0.15909313 0.11614826 0.31098717 0.0023857418 320 85
0.15935165 0.11521539 0.3091335 0.0024651007 302 80
0.16118041 0.11542482 0.31036618 0.0026571634 295 78
-0.21366379 0.13728318 0.37103066 0.011045764 53 14
nan nan nan 0 62 16
-0.18655792 0.12192889 0.33100966 0.0077968021 78 20
-0.18292305 0.12059034 0.32746455 0.0069022682 84 22
-0.18200982 0.1210383 0.3284533 0.0063099316 90 23
-0.17432261 0.11694961 0.31691825 0.0062066345 93 24
-0.17455818 0.11815067 0.31958011 0.0067436025 88 23
-0.1761235 0.12028149 0.32464644 0.0060879653 93 24
-0.17646375 0.12160669 0.32746562 0.0059759831 97 25
-0.17520705 0.12184556 0.32732567 0.0067749387 91 24
-0.17458835 0.12253664 0.32838932 0.0059762937 97 25
-0.17350191 0.12290925 0.32859963 0.0063947788 94 25
-0.17131941 0.12250512 0.32674807 0.0061038933 94 25
-0.17019069 0.12285399 0.32692477 0.0058014197 96 25
-0.16898826 0.12315585 0.32699481 0.0059169242 97 25
-0.16817738 0.12375166 0.3278648 0.0056175445 104 27
-0.16712821 0.12418207 0.32831705 0.0052956427 121 32
-0.1661782 0.12469537 0.3290109 0.0059964899 103 27
-0.16533665 0.12530112 0.32997179 0.0053407587 120 31
-0.16390334 0.12546608 0.32979798 0.0057748994 110 29
-0.16287781 0.12594973 0.33048984 0.0054098712 117 31
-0.16042602 0.12532908 0.32831678 0.0049862829 124 33
-0.16039254 0.12660441 0.33114102 0.0055977483 115 30
-0.15925178 0.12702331 0.33175278 0.0047522862 129 34
-0.15781404 0.12721173 0.33179584 0.0048336051 129 34
-0.15590917 0.12702359 0.33089307 0.0043925876 140 37
-0.15435144 0.12711728 0.33076215 0.004427386 141 37
-0.15257497 0.12703088 0.33020094 0.0044802162 140 37
-0.15237373 0.12826861 0.33311793 0.004410293 151 40
-0.1523588 0.12969267 0.33655319 0.0042953026 152 40
-0.149157 0.1284055 0.33299342 0.0037642403 173 46
-0.14872719 0.12950248 0.33565852 0.0035090279 188 50
-0.14783816 0.13022041 0.33738101 0.0032140815 207 55
-0.14654119 0.13059165 0.33824694 0.0029976857 235 62
-0.1446611 0.13044587 0.33781642 0.0026339579 273 72
-0.14315882 0.13064137 0.33831266 0.0028929228 267 71
-0.14168954 0.1308721 0.33894292 0.0025339397 305 81
-0.1400335 0.13093388 0.33917788 0.0025050566 322 85
-0.13865207 0.13125718 0.3401323 0.0023645859 340 90
-0.13650323 0.13085297 0.33924231 0.0022312205 358 95
-0.13516289 0.13122337 0.34040025 0.0021931864 383 101
-0.13400796 0.13178571 0.34209615 0.0022121693 380 101
-0.13243248 0.13194378 0.34278113 0.0020602369 420 111
-0.13052437 0.13177022 0.34263998 0.0019790919 428 113
-0.12881802 0.13179846 0.34305671 0.0019022243 447 118
-0.12779792 0.13253917 0.34536156 0.0019491316 435 115
-0.12627433 0.13277099 0.34637266 0.0018855287 470 125
-0.12456551 0.13281178 0.34691346 0.0019033557 463 123
-0.12269651 0.13268057 0.3470293 0.0018059526 479 127
-0.12101433 0.13275047 0.34769318 0.0018357011 471 125
-0.11899862 0.13245119 0.34740916 0.0018009037 485 129
-0.11702851 0.13219453 0.34725186 0.0017503609 500 133
-0.11563736 0.13259399 0.3488335 0.0017234971 521 138
-0.11426653 0.13302936 0.35052529 0.0017344675 518 137
-0.11240506 0.13289817 0.35073563 0.001713433 521 138
-0.11071737 0.13297151 0.35149327 0.0016590824 546 145
-0.10899826 0.13300888 0.35216203 0.0016605866 549 146
-0.10733213 0.13311319 0.35301229 0.0016846735 537 142
-0.10543448 0.13292907 0.35309908 0.0016924395 533 141
-0.10370688 0.13295674 0.35374784 0.0017402761 505 134
-0.10244134 0.13358791 0.3560034 0.0017194969 516 137
-0.1007012 0.13361143 0.35663942 0.001761556 516 137
-0.098965846 0.13364221 0.35729069 0.0017210168 540 143
-0.097423717 0.13393977 0.35865083 0.0017168266 517 137
-0.095754191 0.13406995 0.35955778 0.0017153234 520 138
-0.093865581 0.13389248 0.35963181 0.0017197871 522 138
-0.091918007 0.13362248 0.35944688 0.0016401394 546 145
-0.090270452 0.13378663 0.36042005 0.0017181381 526 140
-0.088577986 0.13388942 0.36121899 0.0017767604 509 135
-0.087012231 0.13419181 0.36254737 0.0017157893 523 139
-0.085022315 0.13383901 0.36209449 0.0016673304 541 144
-0.083454944 0.13415052 0.36342725 0.0017068312 521 138
-0.081905231 0.13450448 0.36486572 0.0017023283 526 140
-0.080177143 0.13457468 0.36552382 0.0018546714 475 126
-0.078397706 0.13455993 0.3659392 0.0017923811 488 129
-0.076368675 0.13410617 0.36514673 0.0018360005 469 124
-0.074710749 0.13429809 0.36609894 0.0019782956 442 117
-0.073134497 0.13464965 0.36747554 0.0020111864 423 112
-0.071350463 0.1346266 0.3678183 0.0020351105 422 112
-0.069460303 0.13439704 0.36758357 0.0021901287 356 94
-0.06758818 0.13419133 0.36740014 0.002396574 314 83
-0.066644505 0.13586737 0.37236041 0.0026902249 280 74
-0.064880297 0.13591687 0.37285522 0.002726455 268 71
-0.062869452 0.13543788 0.37188676 0.0028019915 261 69
