# .PCD v0.7 - Point Cloud Data file format
VERSION 0.7
FIELDS x y z noise intensity gray
SIZE 4 4 4 4 2 1
TYPE F F F F U U
COUNT 1 1 1 1 1 1
WIDTH 850
HEIGHT 1
VIEWPOINT 0 0 0 1 0 0 0
POINTS 850
DATA ascii
0.051891554 -0.070027724 0.25230369 0.0020691846 403 85
0.052287046 -0.068983719 0.24832447 0.0021348416 413 87
0.053476639 -0.069010153 0.24819279 0.0020390921 419 89
0.05423845 -0.068495229 0.24610656 0.0021228718 394 83
0.055574887 -0.068712331 0.24664217 0.0021929995 401 85
0.05706599 -0.069107838 0.24780631 0.0022142073 404 85
0.058210667 -0.069076337 0.247428 0.002117146 441 93
0.059306275 -0.068989016 0.2468401 0.0019315429 441 93
0.060565781 -0.069092028 0.24692287 0.0019362826 438 93
0.062495127 -0.069940776 0.24965632 0.0020644304 411 87
0.063117705 -0.06932269 0.24714212 0.0018959818 453 96
0.063763916 -0.068752676 0.2447938 0.0019589062 458 97
0.064348698 -0.068138093 0.2422815 0.0018768099 461 97
0.06518402 -0.067805789 0.24076657 0.0019884666 451 95
0.066201657 -0.067671351 0.23994559 0.0018745911 473 100
0.067477137 -0.067800567 0.24004862 0.0018845077 509 108
0.068814754 -0.067986853 0.24034099 0.0017118005 535 113
0.070087075 -0.068103552 0.24037477 0.0017811825 502 106
0.071077943 -0.067947425 0.23943488 0.0017822867 491 104
0.072116636 -0.067841254 0.23866186 0.0017084186 528 112
0.073331818 -0.067901835 0.23846512 0.0018642811 489 103
0.074296571 -0.06773226 0.23745051 0.0018264496 513 109
0.07523717 -0.067546129 0.23637016 0.0016888673 549 116
0.076264441 -0.067442253 0.23557 0.0017415822 508 107
0.07771229 -0.067707859 0.2360504 0.0018275012 475 100
0.07884793 -0.067697674 0.23555924 0.0017832509 494 104
0.07974755 -0.067488059 0.23436807 0.0017720265 502 106
0.080746464 -0.067367218 0.23348062 0.0018051539 504 107
0.081945211 -0.067414127 0.23316944 0.0017236039 529 112
0.082813405 -0.067191556 0.23192279 0.0017586362 498 105
0.083976485 -0.067211032 0.23150972 0.001842726 499 106
0.085032806 -0.06714569 0.230803 0.0017418012 508 107
0.086390726 -0.067317083 0.230909 0.0018273175 487 103
0.087470248 -0.067269899 0.23026589 0.0018962026 448 95
0.088470571 -0.067163818 0.22942562 0.00199355 460 97
0.089547321 -0.067117698 0.22879681 0.001849224 482 102
0.090197235 -0.066756837 0.22710551 0.0017821064 491 104
0.092046022 -0.067281231 0.22843476 0.0018609104 460 97
0.093153611 -0.067257643 0.22791259 0.0018471299 465 98
0.094350703 -0.067298464 0.22762355 0.0019165853 436 92
0.095167592 -0.067070358 0.22644353 0.0019496168 429 91
0.096231133 -0.067019418 0.22588328 0.0022081172 384 81
0.09713693 -0.066861093 0.22498474 0.0019422424 436 92
0.098180227 -0.066799961 0.22443916 0.0020152328 410 87
0.098918803 -0.066535264 0.2232382 0.0021881708 363 77
0.099989384 -0.066497333 0.22282851 0.0022278277 367 77
0.10226701 -0.067254037 0.22510976 0.0023239562 335 71
0.10255519 -0.066700153 0.22303616 0.0021489272 383 81
0.10289526 -0.066191733 0.22115189 0.0022201724 354 75
0.10346873 -0.0658428 0.21983773 0.0024259526 348 73
0.1058431 -0.066635095 0.22236909 0.0024382633 316 67
0.10727967 -0.066826493 0.22293034 0.0026900431 272 57
0.10733768 -0.066164143 0.220681 0.0029581024 267 56
0.1080012 -0.065884851 0.21974686 0.0031972509 232 49
0.10869239 -0.065627992 0.21892415 0.0032279498 212 45
0.10886104 -0.065064028 0.21711271 0.003396942 214 45
0.10942559 -0.064745627 0.21615522 0.0033044205 224 47
0.11020859 -0.064561516 0.21568 0.0031452796 222 47
0.11044341 -0.064063042 0.21418691 0.0032727772 205 43
0.11062343 -0.063542813 0.212651 0.0037542463 185 39
0.11194851 -0.063683987 0.21335924 0.0038691787 171 36
0.11436287 -0.064436205 0.21614914 0.0040503344 160 34
-0.11778001 -0.057761688 0.20247909 0.0033112164 219 46
-0.11918651 -0.058949873 0.2061062 0.0033503971 200 42
-0.1199049 -0.059815228 0.20859914 0.0033820663 210 44
-0.12042811 -0.060597379 0.21080372 0.0031785895 209 44
-0.12060931 -0.061219625 0.2124584 0.0030966569 224 47
-0.1185825 -0.060722213 0.21024622 0.0032697311 220 46
-0.11683156 -0.060358454 0.2085246 0.0030103638 237 50
-0.11587383 -0.06040163 0.20823316 0.0030942967 220 46
-0.11617827 -0.061109502 0.21025094 0.0029310083 246 52
-0.11542042 -0.061266437 0.21039155 0.0028873167 251 53
-0.11519961 -0.061713982 0.21155173 0.0026918033 265 56
-0.11499269 -0.062177379 0.21278743 0.002700235 278 59
-0.11467796 -0.062590651 0.21387467 0.0032924761 242 51
-0.11403501 -0.06283094 0.21439661 0.0027347407 276 58
-0.11313775 -0.062934369 0.21448031 0.0026553085 303 64
-0.11258436 -0.063232943 0.21525882 0.0024923736 299 63
-0.11213308 -0.063595258 0.21628453 0.0024594967 313 66
-0.11094406 -0.063542202 0.21593016 0.002298977 330 70
-0.11077732 -0.064079419 0.21761519 0.0023891069 319 67
-0.11042241 -0.064517513 0.21899725 0.0023932874 334 70
-0.1093132 -0.064519316 0.218934 0.0020813581 383 81
-0.10930628 -0.065178454 0.22113781 0.0021885722 362 76
-0.10851526 -0.065378867 0.22182246 0.0020584774 400 85
-0.10690113 -0.065082371 0.22085877 0.0019587132 428 90
-0.10528933 -0.064781033 0.21991543 0.002117496 418 88
-0.10454436 -0.065012269 0.22081703 0.0020535623 400 85
-0.10397389 -0.065358199 0.22214566 0.001873228 467 99
-0.10320664 -0.065586656 0.2231122 0.0018922416 468 99
-0.10228721 -0.065722413 0.22379889 0.0018044304 484 102
-0.10150564 -0.065950781 0.22483547 0.0017472147 520 110
-0.10142212 -0.066642992 0.22748877 0.0018413784 470 99
-0.10057592 -0.066844188 0.2284998 0.0019343358 461 97
-0.099540956 -0.066923134 0.22912198 0.0017619225 501 106
-0.097295403 -0.066180475 0.22695298 0.0017737853 491 104
-0.096195467 -0.066208698 0.22744609 0.0018273687 480 102
-0.095303893 -0.066382729 0.22846152 0.0017923231 512 108
-0.094127059 -0.066359892 0.22881788 0.0018305287 473 100
-0.09284097 -0.066258505 0.22891749 0.0018521893 505 107
-0.091829002 -0.06635268 0.22970508 0.0018904909 473 100
-0.091512769 -0.066958264 0.23227808 0.0017094059 524 111
-0.089862831 -0.066591024 0.23148558 0.0017011241 534 113
-0.088603921 -0.066507787 0.23168246 0.0017733027 500 106
-0.087233044 -0.066337228 0.23157641 0.0016730536 537 114
-0.086076483 -0.066327266 0.23203103 0.0016417811 558 118
-0.084708877 -0.06615223 0.23190622 0.0016691623 549 116
-0.083829515 -0.066358916 0.23311773 0.0016608097 557 118
-0.082474522 -0.066189602 0.233005 0.0017212388 523 111
-0.081332408 -0.066188775 0.23347931 0.0016967627 535 113
-0.080118254 -0.066128463 0.23373735 0.0017141458 585 124
-0.079567537 -0.066621915 0.23594879 0.0017332199 551 117
-0.07847552 -0.066669948 0.23657864 0.0016044806 591 125
-0.077938616 -0.067198016 0.23890716 0.0017142444 525 111
-0.076508746 -0.066960484 0.23850647 0.0018145955 547 116
-0.074700534 -0.06637951 0.23686728 0.0016852386 552 117
-0.073675491 -0.066487193 0.23767227 0.0017973755 513 109
-0.073079437 -0.066991538 0.23988853 0.0015962792 592 125
-0.071691811 -0.066774793 0.23951373 0.0014181911 711 151
-0.070757642 -0.06698022 0.24064212 0.0017881752 513 109
-0.070231184 -0.06758482 0.24319816 0.0019915379 420 89
-0.068836875 -0.067360595 0.24276264 0.0025308065 300 63
-0.066888973 -0.066577621 0.24029681 0.0025452422 290 61
-0.065067016 -0.065894887 0.23817393 0.0026298147 310 65
-0.062958904 -0.064892933 0.23487772 0.0021715269 367 77
-0.061554272 -0.064592935 0.23410507 0.0020366465 404 85
-0.059292246 -0.063365586 0.22995375 0.0020252157 413 87
-0.05800223 -0.063150443 0.22945872 0.0018362884 490 104
-0.057369161 -0.06365601 0.23157369 0.0016471974 556 118
-0.055671576 -0.062977076 0.229369 0.0016160165 640 136
-0.054392122 -0.062753566 0.22880955 0.0017347524 564 119
-0.053376283 -0.062831283 0.22933845 0.0017786849 532 113
-0.052252803 -0.062782891 0.22939791 0.0017677179 505 107
-0.051261961 -0.062895186 0.23003566 0.0017439153 512 108
-0.050283454 -0.063027792 0.23073982 0.0017059383 541 114
-0.049410913 -0.063302018 0.23195513 0.0019181781 495 105
-0.048479378 -0.063511342 0.23292574 0.0018834628 501 106
-0.047649473 -0.063866563 0.23442486 0.0018457093 476 101
-0.047111619 -0.064639293 0.23745179 0.0019853483 436 92
-0.046431981 -0.065250233 0.23988038 0.0020832082 390 82
-0.045721848 -0.065847568 0.24225451 0.0024110198 326 69
-0.045886941 -0.067767911 0.24949491 0.0028851875 253 53
-0.047148064 -0.071449541 0.26322615 0.0034896913 195 41
-0.04430712 -0.068945542 0.25416434 0.0022501727 348 73
-0.042990129 -0.068740271 0.2535629 0.0020938981 391 83
-0.041738123 -0.068630211 0.25330496 0.0024463853 339 72
-0.040538192 -0.068601862 0.25334141 0.0022197806 381 80
-0.039423238 -0.068719931 0.25391215 0.0020960132 392 83
-0.038384959 -0.0689831 0.25501326 0.0021941182 359 76
-0.037283618 -0.069146149 0.25573888 0.0021660882 375 79
-0.036141228 -0.069241323 0.25620779 0.0022131728 390 82
-0.035007842 -0.069360852 0.25676134 0.0023643668 375 79
-0.033971556 -0.069688015 0.25807858 0.0023085971 339 72
-0.032798521 -0.069748364 0.25840268 0.0022702266 354 75
-0.031663422 -0.069897041 0.25904909 0.0023814822 334 70
-0.030181834 -0.069262356 0.25678641 0.0023706099 359 76
-0.029042624 -0.069393449 0.25735724 0.0021518406 373 79
-0.027932871 -0.069609202 0.25823769 0.0023566557 327 69
-0.026752897 -0.069661483 0.2585074 0.0024138859 347 73
-0.025620559 -0.069848552 0.25927302 0.0024167004 356 75
-0.024539137 -0.070199728 0.26064405 0.0022916391 346 73
-0.0235392 -0.070832536 0.26305741 0.0023758609 334 70
-0.022270937 -0.070682988 0.26256162 0.0024380642 320 68
-0.021222597 -0.071254507 0.26474074 0.0023784728 330 70
-0.020083055 -0.071571246 0.26596999 0.0022371954 354 75
-0.018916082 -0.071825288 0.26696289 0.0023343679 337 71
-0.017614409 -0.071567632 0.26605031 0.0023511078 336 71
-0.016313409 -0.071274102 0.26500049 0.0024879947 335 71
-0.015000097 -0.070874572 0.26355278 0.0022559061 354 75
-0.013743426 -0.070695542 0.26292136 0.0024774517 363 77
-0.0125964 -0.071100578 0.26445901 0.0025711739 324 68
-0.011372378 -0.071111463 0.26452768 0.002385014 338 71
-0.010120706 -0.070931196 0.26388207 0.0023126437 339 72
-0.0089291465 -0.071180589 0.26483199 0.0025265731 337 71
-0.0077148709 -0.071299523 0.26529357 0.0023734707 326 69
-0.0064780023 -0.071215145 0.2649959 0.0023969181 321 68
-0.0052452022 -0.071146496 0.26475376 0.0026138839 335 71
-0.004043228 -0.071581684 0.26638377 0.0023548207 330 70
-0.0027991531 -0.071326442 0.26544163 0.0024467527 328 69
-0.0015635319 -0.07105545 0.26443803 0.002314846 343 72
-0.0003386249 -0.07107202 0.26450184 0.0023987582 324 68
0.00088640547 -0.071052678 0.26442921 0.0022751882 346 73
0.0021065925 -0.070892788 0.26383081 0.002345013 333 70
0.0033386459 -0.071103014 0.26460707 0.0023500714 356 75
0.004567266 -0.071146868 0.26476124 0.0022483056 354 75
0.005798813 -0.071208067 0.26497728 0.0025964449 334 70
0.0070105623 -0.071047261 0.26436427 0.0023472914 344 73
0.0082571646 -0.071234971 0.26504523 0.0024092325 327 69
0.0095641296 -0.071827397 0.26722884 0.0024668053 307 65
0.010844525 -0.07210733 0.26824659 0.0024491686 314 66
0.012072225 -0.072015353 0.26787761 0.0024818722 332 70
0.013225723 -0.071539149 0.26607653 0.0025527535 317 67
0.014321753 -0.070859857 0.26351744 0.0023346043 335 71
0.015625197 -0.071232915 0.26486874 0.0023036061 349 74
0.01683831 -0.071169794 0.26459464 0.002262298 364 77
0.017938824 -0.070671648 0.26270011 0.0024549391 344 73
0.019158321 -0.07067582 0.26266944 0.0023702253 325 69
0.020338176 -0.070541978 0.26212242 0.0022398287 350 74
0.021535853 -0.070481569 0.26184458 0.0023924543 356 75
0.022721883 -0.070391543 0.26145297 0.0023432183 338 71
0.02391294 -0.070325419 0.26114628 0.0022998804 339 72
0.025087364 -0.070219122 0.26068637 0.0022457289 355 75
0.02627323 -0.070153169 0.26037216 0.0022141163 362 76
0.027526122 -0.070264108 0.26071009 0.0022616028 354 75
0.028792476 -0.070398614 0.26113054 0.0022901816 347 73
0.030019162 -0.070429169 0.26116052 0.0022214195 354 75
0.030947827 -0.069785327 0.25868556 0.0023285646 378 80
0.032140244 -0.06976217 0.25850716 0.0021475847 370 78
0.03364661 -0.070397533 0.26076296 0.0022605129 348 73
0.034836352 -0.070349269 0.26048014 0.002169 369 78
0.036006577 -0.070266157 0.2600629 0.0022273981 394 83
0.037153918 -0.070145264 0.25950032 0.0022328913 352 74
0.038217943 -0.069879636 0.25839692 0.0023550529 363 77
0.039264187 -0.069598742 0.2572318 0.0021985671 368 78
0.04048622 -0.069636859 0.25723985 0.0022660589 372 79
0.041492105 -0.069311693 0.25589991 0.0022471328 382 81
0.042685691 -0.069309533 0.25574622 0.0021169791 386 82
0.044186573 -0.069792852 0.25737596 0.0022605653 360 76
0.045081202 -0.069318354 0.25546625 0.0022199338 383 81
0.046431195 -0.069550462 0.25615373 0.0021374645 378 80
0.047349524 -0.069140561 0.25446942 0.0021144236 388 82
0.048485525 -0.069060855 0.25399372 0.0022172928 381 80
0.049731139 -0.06913732 0.25408426 0.002157219 379 80
0.050909575 -0.069119014 0.25381795 0.0022094729 386 82
0.051684581 -0.068566352 0.25158238 0.0021066896 399 84
0.053033482 -0.068782724 0.25216082 0.0021291811 390 82
0.053995818 -0.06849923 0.25089791 0.0020375394 404 85
0.054582395 -0.067761369 0.24796489 0.0022160895 403 85
0.055771299 -0.067786545 0.24781714 0.0020350877 405 86
0.057119567 -0.068000406 0.24834868 0.0019995668 417 88
0.058569018 -0.068323702 0.24926798 0.0019751228 432 91
0.059758317 -0.068336748 0.24904399 0.0019788935 423 89
0.061261196 -0.068700947 0.25008786 0.0020035526 412 87
0.062567241 -0.068834782 0.25028044 0.0022248304 407 86
0.063615426 -0.068685226 0.24943186 0.0020322751 415 88
0.063701838 -0.067521691 0.24489608 0.001918643 452 96
0.064908043 -0.067565553 0.24473365 0.001964651 430 91
0.06547381 -0.066952974 0.24218524 0.0019531511 443 94
0.066255793 -0.066578873 0.24049333 0.0018892692 487 103
0.067550927 -0.066724397 0.2406684 0.0019163958 466 99
0.069094732 -0.067106552 0.24168305 0.0017862042 493 104
0.070053756 -0.066917539 0.24062838 0.0018347651 500 106
0.071475811 -0.067169771 0.24114887 0.0018157531 481 102
0.072801583 -0.067324921 0.24130733 0.0017622454 503 106
0.073443778 -0.066852964 0.23920915 0.0018788342 494 104
0.074473813 -0.066743195 0.23839979 0.0018362608 465 98
0.075473562 -0.066610016 0.23749794 0.0017837083 492 104
0.076516494 -0.066518374 0.23673572 0.0017437733 507 107
0.077965535 -0.066777274 0.23721032 0.0017269697 523 111
0.079006992 -0.066684619 0.2364261 0.0017532093 509 108
0.079862513 -0.066439942 0.23509686 0.0017915369 485 103
0.080850691 -0.066310987 0.23417218 0.0018100176 494 104
0.081859283 -0.066202134 0.23331363 0.0018602409 464 98
0.083076768 -0.066262878 0.23304765 0.001829225 476 101
0.084321819 -0.066343673 0.23284675 0.0018370951 475 100
0.085144602 -0.066094518 0.23148619 0.0017920679 489 103
0.086253747 -0.066071302 0.23091745 0.0018807098 494 104
0.087655723 -0.066270061 0.23112357 0.0019606294 456 96
0.08866778 -0.066172726 0.23029833 0.0018619088 458 97
0.089525096 -0.065963842 0.22909126 0.0019405446 452 96
0.091161601 -0.066327125 0.22987643 0.0018906391 450 95
0.092122987 -0.066196278 0.22895603 0.001951887 422 89
0.093226671 -0.066169649 0.22840813 0.001897117 448 95
0.094369024 -0.066170759 0.22796974 0.002063764 429 91
0.095452376 -0.066130981 0.22740673 0.0019855548 437 92
0.096119754 -0.065807335 0.22588849 0.0019735703 420 89
0.09719152 -0.065764889 0.22535883 0.001931821 439 93
0.098033331 -0.065569602 0.22433037 0.0021585533 382 81
0.098837957 -0.065354191 0.22326112 0.0020815777 424 90
0.099917628 -0.065323442 0.22285207 0.0020717552 399 84
0.10103257 -0.065316193 0.22255342 0.0022267345 352 74
0.10195187 -0.065184005 0.22186162 0.0021281443 392 83
0.10209841 -0.064566024 0.21955225 0.002430419 359 76
0.10301971 -0.064446025 0.21897316 0.0024579172 346 73
0.10408706 -0.064418986 0.21874577 0.0023798125 330 70
0.10583685 -0.064810425 0.21997514 0.0025483239 294 62
0.10708949 -0.064892411 0.22019067 0.0027156002 273 58
0.10738043 -0.064395994 0.21848102 0.0031176771 250 53
0.10799602 -0.064102419 0.2174969 0.0030364736 237 50
0.1093196 -0.064230777 0.21798126 0.0030409971 231 49
0.11024699 -0.064126104 0.21771123 0.0034387936 229 48
0.1104871 -0.063627742 0.21613947 0.0032734552 221 46
0.10947236 -0.062423613 0.21220125 0.0031263481 222 47
0.10983543 -0.062020939 0.21101695 0.0032753972 220 46
0.11221269 -0.062752426 0.21372521 0.0034782996 193 41
0.10996631 -0.060908966 0.20769057 0.0039540981 172 36
-0.11945593 -0.057573624 0.20509835 0.0032481283 209 44
-0.11965225 -0.058159973 0.20665081 0.0035770785 200 42
-0.12006067 -0.058860388 0.20861171 0.0036231638 198 42
-0.12075707 -0.059715364 0.21112406 0.0033164548 204 43
-0.11853202 -0.059127986 0.20855387 0.0032372917 207 43
-0.11829441 -0.059530396 0.20949678 0.0030534531 234 49
-0.11702907 -0.059418164 0.20864789 0.0031763331 230 48
-0.11572568 -0.059284426 0.20774795 0.0029802839 235 49
-0.11522045 -0.059560858 0.20830803 0.0029360598 244 51
-0.11551385 -0.060258958 0.2103612 0.0030257243 256 54
-0.11535503 -0.060731873 0.21164711 0.0027063363 279 59
-0.11502691 -0.061123651 0.21267256 0.0029262744 245 52
-0.11439156 -0.06135799 0.21317564 0.0026488591 274 58
-0.11343108 -0.061420731 0.21311098 0.0027881437 266 56
-0.11333493 -0.061957195 0.21471839 0.0027233169 292 62
-0.11263863 -0.062172778 0.21524315 0.002766127 285 60
-0.11164097 -0.062224608 0.21523349 0.0024086551 313 66
-0.11149772 -0.062758371 0.21692371 0.0022827084 334 70
-0.11144123 -0.063352115 0.21885426 0.0023408486 326 69
-0.11048177 -0.063439324 0.21907017 0.0022170101 353 75
-0.10922685 -0.063356929 0.21873748 0.0021537594 376 79
-0.10850403 -0.063584656 0.219513 0.0021757362 369 78
-0.10863695 -0.064323813 0.22209215 0.0022241944 377 80
-0.10674094 -0.063864522 0.22057153 0.0019722511 425 90
-0.10552116 -0.063804395 0.22046657 0.0019465858 432 91
-0.10486972 -0.064090304 0.22159488 0.0020033952 410 87
-0.10432611 -0.064449027 0.22301295 0.0019328281 432 91
-0.10353915 -0.064663626 0.2239695 0.0018341227 477 101
-0.10250729 -0.064728349 0.22444202 0.0019163557 485 103
-0.10169134 -0.064932376 0.22543141 0.0018794106 499 106
-0.1013848 -0.065469988 0.22761311 0.0018772091 456 96
-0.10077573 -0.065822318 0.22918402 0.0019812961 457 97
-0.09968809 -0.065866597 0.22971115 0.0018341491 499 106
-0.097115815 -0.064919487 0.22679946 0.0019241443 469 99
-0.096060172 -0.064975761 0.22740914 0.0018476074 504 107
-0.095426008 -0.0653219 0.22905464 0.0017091408 529 112
-0.094291501 -0.06532979 0.22953254 0.0017411493 516 109
-0.092902511 -0.06515938 0.22939633 0.0017375774 517 109
-0.091556326 -0.06501513 0.22936089 0.0018380319 493 104
-0.090558298 -0.065117598 0.23020396 0.0018202154 508 107
-0.089565344 -0.065226369 0.231077 0.001744803 502 106
-0.088926531 -0.065599196 0.23289309 0.0018676815 490 104
-0.087820433 -0.065632559 0.23350902 0.0017249155 517 109
-0.085909076 -0.065057024 0.23195449 0.0017469284 533 113
-0.084862933 -0.065130025 0.2327067 0.001742585 508 107
-0.083342001 -0.064835645 0.23214152 0.001590453 610 129
-0.082625933 -0.065167919 0.23381574 0.0017200019 531 112
-0.08145842 -0.065148473 0.23422451 0.0018611308 519 110
-0.080280527 -0.065120049 0.2345939 0.001783834 548 116
-0.079198934 -0.06517005 0.23523818 0.0016976799 528 112
-0.078681715 -0.065692723 0.23758416 0.0017498306 507 107
-0.077758819 -0.065887183 0.23873882 0.0018019211 549 116
-0.07658308 -0.065870039 0.23911816 0.0016531113 552 117
-0.074786924 -0.06531059 0.23751473 0.0017513771 511 108
-0.074006766 -0.065634772 0.23911273 0.0017030867 529 112
-0.073252782 -0.06599278 0.2408274 0.0019400093 497 105
-0.071735375 -0.065663479 0.240023 0.0017728013 525 111
-0.070704125 -0.065775715 0.24081993 0.0017831465 495 105
-0.069584601 -0.06580817 0.24131437 0.0019022714 450 95
-0.068479799 -0.065855905 0.24185391 0.0020084092 415 88
-0.066968426 -0.065507561 0.24092591 0.0024043657 326 69
-0.065042272 -0.06473425 0.23841777 0.0027123126 315 66
-0.063475847 -0.064297825 0.23713323 0.002231257 350 74
-0.061674185 -0.063603021 0.23487939 0.0020787057 387 82
-0.059783585 -0.062789209 0.23216827 0.0019458071 433 92
-0.058127984 -0.062196296 0.23025706 0.0018433345 471 100
-0.057636067 -0.062849633 0.23294982 0.0016966267 529 112
-0.055535693 -0.061740305 0.2290975 0.0015515396 652 138
-0.054598302 -0.061905473 0.22996086 0.001573134 599 127
-0.053495135 -0.061885569 0.23012783 0.0017426602 541 114
-0.052341472 -0.061805222 0.23006043 0.0016457689 561 119
-0.051387254 -0.061961953 0.23086682 0.0018196583 520 110
-0.05061733 -0.062352493 0.2325374 0.0018663972 471 100
-0.049348574 -0.06213221 0.23192203 0.0017145351 525 111
-0.048876964 -0.062928304 0.23509385 0.0017799243 501 106
-0.048234403 -0.063535996 0.23755801 0.0021485372 425 90
-0.047359291 -0.063858882 0.23895189 0.0021574299 402 85
-0.046236474 -0.063855313 0.23911725 0.0020115566 411 87
-0.046998654 -0.066519499 0.24927185 0.0025507647 334 70
-0.047888871 -0.06950517 0.26063821 0.0034024694 230 48
-0.045595311 -0.06790524 0.25480479 0.0026674985 268 56
-0.044415142 -0.067922123 0.25502685 0.0022995365 378 80
-0.043190625 -0.067870259 0.25498348 0.0022929278 387 82
-0.041930322 -0.067757629 0.25470445 0.0022143808 363 77
-0.040833957 -0.067911066 0.25541884 0.0021558157 376 79
-0.039478026 -0.067629069 0.25448877 0.0022242847 386 82
-0.038466141 -0.067937218 0.25577316 0.002197576 365 77
-0.037340891 -0.068058476 0.25634846 0.002190229 372 79
-0.036237948 -0.068229727 0.25710672 0.002181547 372 79
-0.035082866 -0.068311162 0.25752112 0.0023156097 342 72
-0.034025166 -0.068594679 0.25869238 0.0024142065 326 69
-0.03300225 -0.068971686 0.26021177 0.0025376652 336 71
-0.031849209 -0.06909509 0.26076981 0.0022587073 350 74
-0.0305814 -0.068969414 0.26038277 0.0022472199 379 80
-0.029247176 -0.068677433 0.25936252 0.0022426315 357 75
-0.028133282 -0.068899974 0.26028052 0.0025412098 345 73
-0.027097767 -0.069343045 0.26202795 0.0024672179 321 68
-0.025811626 -0.069156289 0.26139122 0.0022498835 359 76
-0.024922702 -0.070067853 0.26490223 0.0023072327 340 72
-0.023649141 -0.069936521 0.26446709 0.002432781 317 67
-0.022551399 -0.070339203 0.26604757 0.002462094 323 68
-0.021537989 -0.071066767 0.26885387 0.0024739481 309 65
-0.020297401 -0.071088076 0.26898509 0.0023792586 325 69
-0.019019002 -0.070971079 0.26858932 0.002374741 327 69
-0.01784255 -0.071244769 0.26966861 0.0024198084 324 68
-0.016420342 -0.070504494 0.26690626 0.00230315 342 72
-0.015141269 -0.070308253 0.26619959 0.0022817354 349 74
-0.013994497 -0.070746005 0.26789024 0.0023759345 331 70
-0.012736816 -0.070653729 0.26757097 0.0024242876 316 67
-0.011466344 -0.070462957 0.26687551 0.002311955 342 72
-0.010174806 -0.070080981 0.26545271 0.0022519261 356 75
-0.0089562442 -0.070165746 0.26579475 0.0021803824 366 77
-0.0077544227 -0.070429564 0.26681238 0.0024335058 347 73
-0.0065070214 -0.070300929 0.26634052 0.0024602602 321 68
-0.0052714604 -0.070269972 0.26623598 0.0025712186 311 66
-0.0040472164 -0.070417032 0.26680318 0.0024141665 317 67
-0.0028265626 -0.070783183 0.26819786 0.0027456181 300 63
-0.00158609 -0.070837945 0.26841012 0.0024175462 321 68
-0.00034290249 -0.070729077 0.26799965 0.0024904509 327 69
0.00088880863 -0.070017047 0.26530114 0.0026039735 326 69
0.0021200359 -0.070115216 0.26566988 0.0025550313 307 65
0.003353447 -0.070187002 0.26593602 0.0024040563 326 69
0.0045960415 -0.070360817 0.26658604 0.002378487 328 69
0.0058376561 -0.070449211 0.26690975 0.0023783776 326 69
0.0070598531 -0.070313342 0.266381 0.0023925751 321 68
0.0083059138 -0.070420198 0.26676911 0.0023414309 332 70
0.0095950514 -0.070817322 0.26825386 0.0023962928 329 69
0.010881755 -0.071107499 0.26933041 0.0024456596 344 73
0.012144457 -0.071197279 0.26964489 0.0024081951 318 67
0.01332991 -0.070859671 0.26833776 0.0025875689 334 70
0.014469928 -0.070358723 0.26640943 0.00256566 325 69
0.0156104 -0.069938563 0.26478419 0.0023002101 341 72
0.016767377 -0.069648199 0.26364747 0.0024830671 339 72
0.017950831 -0.069499776 0.26304507 0.0026616515 328 69
0.019206963 -0.06963373 0.26350799 0.0024544329 340 72
0.020438462 -0.06966769 0.26358891 0.002249524 358 76
0.021680254 -0.06973093 0.26377684 0.0023166873 358 76
0.023088939 -0.070295528 0.26585707 0.002324407 348 73
0.02448404 -0.070763618 0.26756752 0.0023517963 330 70
0.025258981 -0.069480635 0.26265362 0.0023051025 340 72
0.026468083 -0.06945505 0.26249 0.0023285367 379 80
0.027688466 -0.069460019 0.26243755 0.0024280376 353 75
0.029075271 -0.069864482 0.26388949 0.0022993365 357 75
0.030391483 -0.070073433 0.26459768 0.0024309468 339 72
0.031240955 -0.069231823 0.2613349 0.0023839849 366 77
0.03237034 -0.069050305 0.26056007 0.0024875733 353 75
0.033675674 -0.069243662 0.26119471 0.0023395114 344 73
0.035028748 -0.069518283 0.26212981 0.0022023092 365 77
0.036251906 -0.069525287 0.26204988 0.0021401283 374 79
0.037530616 -0.069634899 0.26235083 0.0024184948 356 75
0.038712613 -0.069563814 0.26196492 0.0021794934 373 79
0.039736606 -0.069221832 0.26055342 0.0022616368 365 77
0.040519021 -0.068491779 0.25767684 0.0023174575 377 80
0.041691296 -0.06844379 0.25736126 0.0022711866 372 79
0.042815685 -0.068322085 0.25676212 0.0022601327 377 80
0.043914385 -0.06816712 0.25603163 0.0021990852 374 79
0.045553125 -0.068836465 0.25838882 0.0022164474 386 82
0.046890337 -0.069027327 0.25894067 0.0021663134 381 80
0.048111703 -0.069042355 0.25882462 0.002403924 370 78
0.048763655 -0.068259574 0.25571176 0.0021744231 376 79
0.049882762 -0.068152562 0.25512472 0.0022540202 358 76
0.050927594 -0.067951463 0.25417802 0.0020798815 390 82
0.051886633 -0.06764771 0.25284019 0.0020581319 401 85
0.052859116 -0.067374676 0.25161028 0.0020469103 401 85
0.054092579 -0.067438953 0.25163165 0.0021623927 371 78
0.055123616 -0.067253508 0.25071245 0.0021044174 381 80
0.055925686 -0.066802345 0.24879546 0.0020793716 427 90
0.057416629 -0.067175649 0.24993974 0.0020431571 405 86
0.058769491 -0.067375638 0.25042719 0.0020377999 408 86
0.060134269 -0.067581132 0.25092328 0.0020906867 394 83
0.061031301 -0.067263193 0.24946603 0.002176407 421 89
0.062065516 -0.067105621 0.24859497 0.0020763127 424 90
0.06349206 -0.067370199 0.24927653 0.0021606628 395 83
0.064193115 -0.066869378 0.24711627 0.0021040025 427 90
0.064865828 -0.066357553 0.24490897 0.0020620089 425 90
0.065986276 -0.066313721 0.24442045 0.0019833099 439 93
0.066838205 -0.066006236 0.24295068 0.0019347554 470 99
0.067715302 -0.065733649 0.24160114 0.0018042355 485 103
0.06911467 -0.065968677 0.24210615 0.0020248948 476 101
0.070732802 -0.066401355 0.24332146 0.0019594252 448 95
0.0718043 -0.066315152 0.242622 0.0018405432 468 99
0.073030837 -0.066372603 0.24243683 0.0018950868 450 95
0.073893338 -0.066102602 0.24104573 0.0019267182 464 98
0.074666165 -0.065761968 0.23938972 0.0019030975 446 94
0.075687028 -0.065646812 0.23854665 0.0019318295 501 106
0.076938465 -0.065732114 0.23842168 0.0018075882 490 104
0.078009509 -0.065663069 0.23772672 0.0018703855 461 97
0.079025812 -0.065550596 0.23686625 0.0018013405 483 102
0.080073111 -0.065466709 0.23610148 0.0018497793 505 107
0.081198193 -0.065447882 0.23556389 0.0017477799 529 112
0.082155615 -0.065296337 0.23454235 0.001943811 477 101
0.083536148 -0.065480612 0.2347205 0.0018773766 452 96
0.084802695 -0.065571748 0.23455749 0.0018513163 463 98
0.085264787 -0.065046743 0.23218971 0.0018188762 477 101
0.086306192 -0.064971723 0.23143017 0.0018756316 493 104
0.087580755 -0.065071866 0.23129345 0.0018358695 471 100
0.088982351 -0.065262631 0.23147753 0.0019691163 453 96
0.090035103 -0.065195933 0.23075022 0.0019356888 478 101
0.090916775 -0.065008588 0.22960266 0.0018588426 463 98
0.092219837 -0.065123461 0.22953022 0.0018047497 484 102
0.09317106 -0.064990103 0.22859253 0.0019311131 466 99
0.09440551 -0.065055132 0.2283652 0.0019080944 440 93
0.09550786 -0.065028675 0.22783101 0.0019802907 416 88
0.097166263 -0.065376967 0.22862493 0.0020528196 443 94
0.097266249 -0.0646808 0.22578844 0.002022157 442 93
0.098146453 -0.064513557 0.22482593 0.0019720285 420 89
0.099258915 -0.06450104 0.22442852 0.0019896736 418 88
0.10065861 -0.064673364 0.22470064 0.002109892 384 81
0.10104239 -0.064196385 0.22274768 0.002173421 365 77
0.1017808 -0.063952751 0.22163886 0.0021741355 374 79
0.10239086 -0.063634664 0.22030711 0.0021915967 359 76
0.1029404 -0.063286223 0.21890683 0.0022513154 348 73
0.10402525 -0.063270822 0.21869498 0.0022461938 344 73
0.10522265 -0.063323475 0.21875463 0.0024227896 320 68
0.10675275 -0.063573137 0.21953152 0.0025598423 291 61
0.10734525 -0.063265078 0.21841997 0.0025415667 293 62
0.10796695 -0.062980354 0.21742688 0.0026894107 272 57
0.1091003 -0.06299682 0.21751103 0.0027071643 263 55
0.11032067 -0.063062713 0.21780306 0.0029415644 265 56
0.1108077 -0.062712252 0.21669324 0.0030195049 230 48
0.11073428 -0.062054604 0.21455586 0.0027693415 260 55
0.11069678 -0.061429705 0.21256334 0.0029024605 248 52
0.1109648 -0.060984761 0.21122383 0.0030507504 242 51
0.11395011 -0.062027439 0.2150716 0.003518004 204 43
-0.12098098 -0.057285771 0.20745766 0.0034314394 205 43
-0.11963676 -0.057132311 0.20637025 0.0033995106 196 41
-0.11998789 -0.057792783 0.20823461 0.0032489856 210 44
-0.11950238 -0.058058251 0.20868573 0.0031369498 217 46
-0.11888229 -0.058262397 0.2089323 0.0032763104 210 44
-0.11785403 -0.058268365 0.20848761 0.0035146619 220 46
-0.11770498 -0.058712982 0.20963122 0.0032064212 243 51
-0.11680649 -0.058788411 0.20947623 0.0028721839 248 52
-0.11567379 -0.058746256 0.20892651 0.0031182701 253 53
-0.11547028 -0.059179541 0.21009088 0.0029977567 258 54
-0.11506367 -0.059515797 0.21093288 0.0027879663 255 54
-0.11465939 -0.059859522 0.2118257 0.0027110446 270 57
-0.11407217 -0.060113315 0.21242656 0.0027732507 257 54
-0.1127633 -0.059988018 0.21171781 0.0026590507 270 57
-0.11341091 -0.060911123 0.2147378 0.002351962 326 69
-0.11336063 -0.061473645 0.21651427 0.0026228402 285 60
-0.11127712 -0.060933802 0.21444227 0.0023547884 319 67
-0.11137546 -0.061589837 0.21661405 0.0025668286 314 66
-0.11155975 -0.062306963 0.21903421 0.0021125448 377 80
-0.11076945 -0.062488742 0.21960841 0.0022153417 360 76
-0.10925274 -0.062260251 0.2187786 0.0021562679 374 79
-0.10823716 -0.062315591 0.21898428 0.0021460159 371 78
-0.1075888 -0.062585689 0.21998304 0.0020533877 389 82
-0.10667663 -0.062706389 0.22049525 0.0020628702 399 84
-0.10594165 -0.062934898 0.22142503 0.0020591787 411 87
-0.1052473 -0.063192718 0.22249624 0.0019316 438 93
-0.10482397 -0.063620605 0.22420466 0.0019304627 431 91
-0.10404559 -0.063840017 0.22521596 0.0018923302 467 99
-0.10305673 -0.063933715 0.2258188 0.0018787981 447 94
-0.10201055 -0.063993558 0.22633481 0.0017968384 487 103
-0.10121686 -0.06421493 0.22745362 0.0018726091 482 102
-0.100379 -0.064413056 0.22852013 0.001982423 454 96
-0.098170429 -0.063725971 0.22646856 0.0016904016 538 114
-0.09684094 -0.06360013 0.22642912 0.0017836819 527 111
-0.095684268 -0.063586131 0.22680686 0.0017596203 504 107
-0.095006652 -0.063893966 0.2283518 0.0017587672 505 107
-0.094368704 -0.064236306 0.23003927 0.0018348318 504 107
-0.09284579 -0.063977249 0.22958566 0.0017808365 486 103
-0.091513097 -0.063844457 0.22959164 0.0017878981 502 106
-0.090277001 -0.063776553 0.22983648 0.0017295739 516 109
-0.089494638 -0.064031549 0.2312512 0.0017228804 524 111
-0.08850982 -0.064146422 0.23216526 0.0016976935 531 112
-0.087669261 -0.064370222 0.23347688 0.0017197208 520 110
-0.086098038 -0.064056367 0.2328365 0.0018119877 536 113
-0.084326185 -0.063582771 0.23160665 0.0017141229 522 110
-0.083528526 -0.063840836 0.23303606 0.0016616315 544 115
-0.082933813 -0.064263284 0.23506522 0.0017107344 528 112
-0.08190164 -0.064353876 0.23587769 0.0017124688 530 112
-0.080681421 -0.064297177 0.23614296 0.0016840736 537 114
-0.079498887 -0.064269304 0.23650508 0.0017510046 534 113
-0.078400061 -0.064309277 0.23710772 0.0017460686 510 108
-0.077504493 -0.064519651 0.23833065 0.001883332 504 107
-0.076432966 -0.064587675 0.23901936 0.0018204481 474 100
-0.075321101 -0.064623185 0.23957779 0.0018362603 478 101
-0.074056119 -0.064526387 0.23963434 0.0019581809 485 103
-0.072921574 -0.064541958 0.24009646 0.0017808885 495 105
-0.071809016 -0.064577818 0.24062306 0.0017252893 519 110
-0.070691019 -0.06460987 0.24112442 0.0018300865 517 109
-0.069694996 -0.064756319 0.24204221 0.0018817277 470 99
-0.0683975 -0.064622879 0.24190241 0.0018145186 480 102
-0.067043394 -0.064430453 0.24152859 0.001991939 426 90
-0.065411463 -0.063959658 0.24009639 0.0023499825 325 69
-0.063507177 -0.063201077 0.23756646 0.0023306841 338 71
-0.061515801 -0.062326796 0.23458269 0.0020450044 404 85
-0.059853014 -0.061759382 0.23273639 0.0020873342 434 92
-0.058676559 -0.061681889 0.23272297 0.0018405567 469 99
-0.05723438 -0.061316766 0.23161224 0.0018239174 495 105
-0.055611797 -0.060740352 0.22968948 0.0016621576 605 128
-0.054573141 -0.060791478 0.23012799 0.0016657165 621 131
-0.053756177 -0.061096642 0.23152013 0.001722589 522 110
-0.052502174 -0.060907438 0.23103014 0.0017733066 539 114
-0.051856238 -0.061430573 0.23323432 0.001713031 514 109
-0.050745878 -0.061414253 0.23338334 0.001790748 499 106
-0.049870703 -0.061688125 0.23462737 0.0018000285 507 107
-0.04841046 -0.061234314 0.23309477 0.0018137362 511 108
-0.048021384 -0.062145766 0.23675235 0.0018129088 481 102
-0.047374196 -0.062758401 0.23926803 0.0019899488 414 87
-0.048331268 -0.065577425 0.25019738 0.0021102214 392 83
-0.048939932 -0.068051964 0.25981888 0.0029113689 253 53
-0.047144055 -0.067223832 0.25682735 0.0026665961 304 64
-0.045619629 -0.066749603 0.25517696 0.0021321254 381 80
-0.044410732 -0.066723987 0.25523299 0.002285538 358 76
-0.04329126 -0.066835016 0.25580475 0.0021536893 382 81
-0.042159464 -0.066932783 0.25631931 0.0021977059 362 76
-0.041072536 -0.067109562 0.25713027 0.0021422312 376 79
-0.039940085 -0.067220345 0.25768241 0.0021797819 370 78
-0.038492184 -0.066790633 0.25615579 0.0021511582 379 80
-0.037465714 -0.067088082 0.25741172 0.0022281671 368 78
-0.036418218 -0.067366287 0.25858885 0.0022189799 361 76
-0.035219692 -0.067374572 0.25872469 0.0022370191 356 75
-0.034023952 -0.067388967 0.25887859 0.0023875835 328 69
-0.032870859 -0.067491978 0.25936785 0.0025639003 335 71
-0.031843062 -0.067869894 0.26090902 0.0022998569 344 73
-0.030877998 -0.068416707 0.26309571 0.0022245883 360 76
-0.029649217 -0.068400174 0.26311198 0.0025062354 328 69
-0.028400956 -0.068335354 0.26293778 0.0023222703 335 71
-0.027256947 -0.068526804 0.26374531 0.0023884934 332 70
-0.026238404 -0.069066532 0.2658897 0.0025764417 299 63
-0.025107518 -0.069349177 0.26704109 0.0025767118 325 69
-0.023930734 -0.069527805 0.26778829 0.0023876866 325 69
-0.022900116 -0.070173874 0.27033255 0.0024602709 314 66
-0.021710386 -0.070378952 0.27117491 0.0024421173 320 68
-0.020498624 -0.070533417 0.27181876 0.0026262514 320 68
-0.019181697 -0.070322543 0.27105114 0.0023627949 341 72
-0.017898133 -0.070213035 0.27067062 0.0026607874 307 65
-0.016500115 -0.069604188 0.26836145 0.0024081932 335 71
-0.015347571 -0.070016026 0.26998419 0.0024580259 347 73
-0.014108347 -0.070070401 0.2702257 0.0022962212 344 73
-0.012833525 -0.069941357 0.26975682 0.0024566751 315 66
-0.011472029 -0.069261193 0.26715913 0.0022750353 343 72
-0.010234568 -0.069256008 0.26716191 0.0023441357 337 71
-0.0089783473 -0.069104999 0.26659936 0.0022317164 358 76
-0.007773018 -0.069359981 0.26760045 0.0023627521 334 70
-0.0065158666 -0.069161564 0.26684955 0.0025754406 328 69
-0.0052603805 -0.068892159 0.26582211 0.0022809021 345 73
-0.0040577454 -0.069361739 0.26764348 0.0024581822 309 65
-0.0028281792 -0.069581255 0.26849756 0.0023525639 333 70
-0.0015850229 -0.069548465 0.26837552 0.002431544 319 67
-0.00034274237 -0.069455869 0.26802015 0.002388654 324 68
0.00089739717 -0.069453493 0.26801038 0.0023699554 328 69
0.0021312514 -0.069249645 0.26722071 0.0023283388 338 71
0.003369085 -0.069277316 0.26732191 0.0022933111 347 73
0.0046379641 -0.069757074 0.26916501 0.0025046391 317 67
0.0058858031 -0.069784224 0.26925907 0.0024998328 344 73
0.0071169818 -0.069638871 0.26868489 0.0023418455 330 70
0.008353048 -0.06957747 0.26843208 0.0024075883 321 68
0.0096207 -0.069761001 0.2691215 0.0023308836 342 72
0.010900929 -0.069983214 0.26995721 0.0023515548 328 69
0.012169129 -0.070090406 0.27034643 0.002512983 335 71
0.013383257 -0.06989523 0.26956645 0.0024404991 312 66
0.014566874 -0.069587588 0.26835001 0.0024126442 328 69
0.015696539 -0.069090836 0.26640162 0.0023538843 329 69
0.016804555 -0.068578131 0.26438913 0.0024763464 324 68
0.018038955 -0.068615772 0.26449546 0.0023791227 318 67
0.019322684 -0.068824366 0.26525727 0.0024064619 324 68
0.020568149 -0.068879865 0.2654255 0.0024223367 319 67
0.021771912 -0.068797305 0.26505828 0.0021838809 369 78
0.023065131 -0.068991169 0.26575223 0.0022711174 344 73
0.024372825 -0.069206454 0.26652464 0.0026218102 336 71
0.025606189 -0.069200106 0.26643932 0.0024582793 334 70
0.026688555 -0.068805039 0.26485372 0.0022769615 361 76
0.028028997 -0.069080815 0.26584619 0.0022746068 349 74
0.029342115 -0.06926883 0.26649609 0.0022651704 346 73
0.030576348 -0.069262944 0.26639521 0.0024529491 336 71
0.031480052 -0.068537898 0.2635245 0.0021954628 372 79
0.032465946 -0.068039358 0.26152125 0.0025203321 332 70
0.033750147 -0.068179399 0.26196796 0.0024364083 333 70
0.035333589 -0.068893149 0.26461259 0.0022564819 372 79
0.036460966 -0.068699554 0.26376602 0.0024080935 365 77
0.037617661 -0.068572015 0.26316789 0.0023336434 353 75
0.038811296 -0.068517715 0.26284528 0.0023431403 347 73
0.039978363 -0.068421274 0.26235515 0.002388512 352 74
0.041024595 -0.068129882 0.26111197 0.002320677 335 71
0.041853778 -0.067505196 0.25858665 0.0022735079 354 75
0.042969864 -0.067365259 0.25791314 0.0021626046 378 80
0.044215016 -0.067429788 0.25801572 0.0021411842 375 79
0.045691215 -0.067833908 0.25940961 0.0022278945 357 75
0.047132205 -0.068166234 0.26051983 0.0023353132 366 77
0.048225004 -0.067990929 0.259682 0.0024545363 362 76
0.048801176 -0.067113742 0.25615823 0.0021015753 390 82
0.050211687 -0.067398518 0.25706288 0.0022233939 358 76
0.051144451 -0.067043707 0.25552008 0.0022865362 359 76
0.05212374 -0.066764712 0.2542595 0.0022492069 368 78
0.053004898 -0.066375315 0.25257185 0.0021021548 389 82
0.054156143 -0.066333756 0.25220016 0.0022270223 403 85
0.055424124 -0.066433929 0.2523579 0.0021874299 366 77
0.056627464 -0.066454016 0.25220174 0.0022051558 388 82
0.057782769 -0.066418089 0.25182328 0.0023354753 380 80
0.059252378 -0.066737607 0.25278151 0.0022615972 380 80
0.06045429 -0.066748947 0.25256106 0.0022020282 386 82
0.061735816 -0.066846058 0.25265422 0.0021717134 395 83
0.062204827 -0.066076405 0.24946354 0.0020287582 412 87
0.063148476 -0.065830193 0.24824271 0.0021158336 394 83
0.064199314 -0.065702684 0.2474602 0.0020075254 418 88
0.064986482 -0.065314755 0.24568819 0.002057923 428 90
0.065891005 -0.065056361 0.24439545 0.0019903064 427 90
0.067154214 -0.065154925 0.24443315 0.0019538957 467 99
0.068474501 -0.065304585 0.24464975 0.0018849141 458 97
0.069467157 -0.065141983 0.24368514 0.001862676 467 99
0.070624352 -0.065136492 0.24329759 0.0018914832 457 97
0.071958899 -0.065292105 0.24349931 0.0019749992 462 98
0.0730621 -0.065236188 0.2429 0.0019824558 483 102
0.074119665 -0.065141916 0.24214724 0.0020592392 439 93
0.075002946 -0.064899765 0.24083546 0.0018769285 458 97
0.076174609 -0.064910702 0.24045323 0.0018520677 469 99
0.077109985 -0.064722992 0.23932537 0.0018870946 457 97
0.077926204 -0.064442284 0.2378463 0.0018770753 453 96
0.079093687 -0.064456001 0.23744565 0.001957796 457 97
0.081023671 -0.065081805 0.23928577 0.0019649747 454 96
0.08176025 -0.06474486 0.2375751 0.0019040062 452 96
0.082565375 -0.064470835 0.23609175 0.0019597276 472 100
0.083680347 -0.06444297 0.23550476 0.0019361271 437 92
0.084943429 -0.064528361 0.23532511 0.001880076 454 96
0.085942827 -0.06441386 0.23441166 0.0019234827 450 95
0.08637993 -0.063886493 0.23199716 0.0017860959 490 104
0.087739706 -0.06404639 0.23207912 0.0019160948 484 102
0.088903151 -0.064060703 0.23163185 0.0018541773 464 98
0.089738488 -0.063841239 0.23034236 0.0020269642 458 97
0.090829223 -0.063806683 0.22972555 0.0018574703 457 97
0.092118412 -0.063910671 0.22961274 0.0020221339 449 95
0.093475439 -0.064058609 0.22966397 0.0021131171 414 87
0.094338082 -0.063868262 0.22851326 0.0019737117 423 89
0.095530473 -0.063903049 0.22818233 0.0020217001 412 87
0.096933618 -0.064076312 0.22836027 0.0019836361 416 88
0.098108269 -0.064096265 0.228009 0.0021849514 380 80
0.098451816 -0.06357903 0.2257712 0.0021364167 410 87
0.099643163 -0.063614853 0.22552395 0.0019555315 423 89
0.10080812 -0.063633218 0.22524075 0.0021326002 376 79
0.10160769 -0.06342309 0.22417831 0.0022210968 350 74
0.10208955 -0.063021466 0.22247258 0.0022848831 340 72
0.10357182 -0.06323944 0.22298749 0.0023031051 343 72
0.10411445 -0.062885173 0.22151931 0.0021840986 355 75
0.10534481 -0.062949419 0.22156189 0.0025129144 337 71
0.10558897 -0.062429219 0.21958524 0.0025091455 336 71
0.10686054 -0.062520988 0.21979941 0.0024575244 306 65
0.10873032 -0.06295725 0.22126195 0.0025805007 288 61
0.10846555 -0.062161274 0.21843229 0.0030677372 263 55
0.10911983 -0.061902784 0.21752973 0.0029415395 260 55
0.11005169 -0.061805379 0.21723089 0.0028080188 257 54
0.11020716 -0.061278217 0.2154581 0.0028866488 249 52
0.1114386 -0.061353792 0.2158405 0.0028468163 248 52
0.11168004 -0.060888164 0.21435367 0.0027004238 264 56
0.11249679 -0.060742132 0.21402501 0.0030345591 246 52
0.11231241 -0.060063511 0.21185054 0.0037806495 204 43
-0.11809555 -0.05492102 0.20226327 0.0030192947 232 49
-0.11918775 -0.055901594 0.20535004 0.0029845901 236 50
-0.11990699 -0.0567226 0.20785132 0.0032413679 211 44
-0.11926077 -0.056906302 0.20802744 0.0029966664 233 49
-0.11845136 -0.057014681 0.20794627 0.0029897478 234 49
-0.11809864 -0.057346731 0.20869906 0.0033224481 240 51
-0.11773831 -0.057680961 0.20947754 0.0032802229 240 51
-0.1176732 -0.058167133 0.21082604 0.0030017213 247 52
-0.1170513 -0.058384411 0.21122038 0.0026213857 296 62
-0.11565305 -0.058214858 0.21024162 0.0027291826 265 56
-0.11486746 -0.058353428 0.21040361 0.0028758969 274 58
-0.11488012 -0.05890388 0.21207592 0.0026559711 278 59
-0.11405333 -0.059030212 0.21224804 0.0028156282 272 57
-0.1138641 -0.059492059 0.21365549 0.0027385408 259 55
-0.11356497 -0.059904788 0.21491589 0.0024310544 315 66
-0.11376447 -0.060591087 0.21718816 0.002436352 308 65
-0.11266531 -0.060592368 0.21703829 0.0026591655 310 65
-0.11181841 -0.060730692 0.21741538 0.0024476717 314 66
-0.11145139 -0.061135009 0.21878101 0.0022170334 352 74
-0.11103609 -0.061520711 0.22011721 0.00219582 356 75
-0.11002341 -0.061579913 0.22032356 0.0021560853 368 78
-0.10885639 -0.061553054 0.2202608 0.0021643199 365 77
-0.10771275 -0.061539002 0.22028267 0.0020541155 395 83
-0.10659474 -0.061539449 0.22039488 0.0020296378 402 85
-0.10593738 -0.061808676 0.22150816 0.0019307492 436 92
-0.10592557 -0.062464353 0.22404625 0.002083187 406 86
-0.10497557 -0.06257499 0.22466813 0.0020836394 409 86
-0.10420435 -0.062795796 0.22572181 0.0019855916 457 97
-0.10306282 -0.06279587 0.22601625 0.0019718127 431 91
-0.10181616 -0.062731147 0.22610858 0.0018565261 466 99
-0.10078928 -0.062801927 0.22671817 0.0018562985 519 110
-0.0994469 -0.062675484 0.22664212 0.0017891863 490 104
-0.098299712 -0.062670544 0.22702858 0.0017620688 488 103
-0.097002015 -0.062568411 0.2270835 0.0017873504 511 108
-0.09600877 -0.062662564 0.22786933 0.0018892471 474 100
-0.094873957 -0.06266547 0.22833984 0.0016951736 528 112
-0.09475401 -0.063346937 0.23130111 0.0018193002 523 111
-0.093021005 -0.06295348 0.23035029 0.0019207061 494 104
-0.091618769 -0.062776886 0.23019652 0.0017133876 523 111
-0.09067028 -0.062910661 0.23118614 0.0018333349 513 109
-0.089275226 -0.06273406 0.23103821 0.0017170201 555 117
-0.088147044 -0.062742829 0.23157294 0.0016598945 550 116
-0.086971208 -0.062717475 0.23198105 0.0017259881 548 116
-0.08571291 -0.06263119 0.23216067 0.0018246017 527 111
-0.084585242 -0.062639311 0.23268583 0.001741759 517 109
-0.084058702 -0.0630989 0.23488654 0.0017081936 525 111
-0.083115369 -0.063254014 0.23595223 0.0017475524 523 111
-0.081970878 -0.063258238 0.23644885 0.0016803372 550 116
-0.080892026 -0.063313954 0.23713014 0.0017397916 540 114
-0.0795817 -0.063187502 0.23711947 0.0017317439 513 109
-0.078396462 -0.06315811 0.23746221 0.0016842505 539 114
-0.077272177 -0.063177675 0.23797864 0.0018775042 488 103
-0.076372012 -0.063383847 0.23918889 0.001766591 502 106
-0.075351007 -0.063494511 0.24002981 0.0017926333 486 103
-0.074194379 -0.063492551 0.24043444 0.001935244 485 103
-0.073105037 -0.063549012 0.24104911 0.0017188594 526 111
-0.071992218 -0.063586563 0.24158105 0.0018184063 501 106
-0.070958905 -0.063696697 0.24237792 0.0018176798 523 111
-0.069670022 -0.063577272 0.24228957 0.0017910668 493 104
-0.068777651 -0.06382177 0.24357711 0.0018209348 480 102
-0.067547947 -0.063756235 0.2436707 0.0018496159 469 99
-0.065894186 -0.063281201 0.24218492 0.0019046019 448 95
-0.064188868 -0.062738873 0.24042508 0.0022976384 378 80
-0.062243607 -0.061938159 0.23765743 0.00211441 412 87
-0.060752098 -0.061567791 0.23652458 0.0020359745 441 93
-0.058696978 -0.060601614 0.23308627 0.0018544429 457 97
-0.057282209 -0.060272254 0.23208131 0.0018207697 477 101
-0.055974703 -0.060045108 0.23145765 0.0016089677 579 123
-0.05472438 -0.059871484 0.23102905 0.001569243 627 133
-0.05377727 -0.060029279 0.23186983 0.0016309265 569 120
-0.053291563 -0.06071933 0.23476043 0.0017099963 528 112
-0.051750388 -0.060210545 0.23300762 0.0017439729 512 108
-0.050913807 -0.06051727 0.2344013 0.0017741375 499 106
-0.04979606 -0.060495973 0.2345168 0.0017506795 501 106
-0.049062897 -0.060951479 0.23647368 0.0017882755 509 108
-0.049633905 -0.063085668 0.24494299 0.0023086087 355 75
-0.050207403 -0.065324061 0.25382155 0.0023513793 346 73
-0.048945449 -0.065224975 0.25361556 0.0021515854 367 77
-0.047900993 -0.065417998 0.25453764 0.0021867207 368 78
-0.046740551 -0.065458424 0.25485882 0.0021588246 383 81
-0.045776997 -0.06578391 0.25628322 0.0021789959 372 79
-0.044573758 -0.065773167 0.2563912 0.0021802341 367 77
-0.043526925 -0.065998979 0.25741464 0.002358187 368 78
-0.042577434 -0.066389389 0.2590746 0.0023509609 331 70
-0.041287433 -0.066256143 0.25868484 0.0023436816 330 70
-0.039945405 -0.066028886 0.25792095 0.0022679695 355 75
-0.038817737 -0.066152863 0.2585226 0.0022149247 379 80
-0.03771802 -0.066333927 0.25934201 0.0022383998 356 75
-0.036655243 -0.066594049 0.26046541 0.0023152989 343 72
-0.035385758 -0.066483572 0.26013395 0.0024069853 322 68
-0.034047596 -0.066231698 0.2592434 0.0024221831 323 68
-0.032858737 -0.066262439 0.25945351 0.0024074696 341 72
-0.031828366 -0.066627286 0.26096734 0.0023302378 339 72
-0.030883171 -0.067206345 0.26331666 0.0024477069 358 76
-0.02983219 -0.067593433 0.26491022 0.0024789844 341 72
-0.028575769 -0.0675283 0.26472732 0.002417641 328 69
-0.027322901 -0.067466088 0.2645514 0.0023716984 328 69
-0.026318224 -0.068039671 0.26686493 0.0024622595 320 68
-0.025293488 -0.068615407 0.26918387 0.0024160012 322 68
-0.024131466 -0.06885913 0.27019712 0.0023986739 318 67
-0.022822263 -0.068686575 0.26957312 0.0024308057 322 68
-0.021826699 -0.069492623 0.27278671 0.0027412374 302 64
-0.020444777 -0.069092035 0.27126047 0.0026323467 314 66
-0.019199522 -0.069131084 0.27145663 0.0024520226 306 65
-0.017937936 -0.069112696 0.271424 0.0024128363 323 68
-0.016705524 -0.069212399 0.27185196 0.0024595459 312 66
-0.015414105 -0.069063962 0.27130222 0.0023249439 343 72
-0.01413334 -0.068941168 0.27085003 0.0026048322 335 71
-0.012818101 -0.068609945 0.26957601 0.0027021319 312 66
-0.01155885 -0.068539314 0.2693229 0.0024047166 328 69
-0.010286085 -0.068361782 0.26864699 0.0026357831 329 69
-0.0090632224 -0.0685127 0.26925907 0.0024780859 340 72
-0.0077890125 -0.068261705 0.26828912 0.002363153 345 73
-0.0065376568 -0.068153806 0.26787895 0.0023029442 338 71
-0.0052722786 -0.067815095 0.266559 0.002368463 335 71
-0.0040692952 -0.068317145 0.26854137 0.0025187284 321 68
