# .PCD v0.7 - Point Cloud Data file format
VERSION 0.7
FIELDS x y z noise intensity gray
SIZE 4 4 4 4 2 1
TYPE F F F F U U
COUNT 1 1 1 1 1 1
WIDTH 992
HEIGHT 1
VIEWPOINT 0 0 0 1 0 0 0
POINTS 992
DATA ascii
-0.19651501 0.021769989 0.3578392 0.002363852 329 72
-0.18933445 0.021170048 0.34833634 0.0018189247 483 105
-0.18843256 0.021267451 0.35037509 0.0017046139 535 117
-0.1874443 0.021356868 0.35235906 0.0016847821 537 117
-0.18645199 0.02144753 0.3544372 0.0018715468 453 99
-0.18571976 0.021570159 0.35711434 0.0019935044 414 90
-0.18474993 0.02166732 0.35943621 0.0019337843 437 95
-0.18386872 0.021776896 0.36202511 0.0019999947 415 90
-0.18477948 0.022103008 0.3682777 0.0020994709 399 87
-0.18431814 0.022269906 0.37193817 0.0022431288 389 85
-0.18356094 0.022404095 0.3750999 0.0021301876 382 83
-0.18908788 0.023315921 0.39135408 0.0022740932 344 75
-0.1944119 0.024221407 0.40760306 0.0026780164 306 67
-0.19757482 0.024873829 0.41967866 0.0027940497 260 57
nan nan nan 0 221 48
nan nan nan 0 200 43
-0.30858576 0.040112671 0.68216926 0.002040847 412 90
-0.29973364 0.039388854 0.67161387 0.0014861922 706 154
-0.29427302 0.039099626 0.66840875 0.0012791381 851 186
-0.290777 0.039067872 0.66957003 0.0013213168 828 181
-0.28738457 0.039049476 0.67093205 0.0012901126 812 178
-0.28412461 0.039048862 0.6725685 0.0014092185 759 166
-0.28104648 0.039073519 0.67460692 0.0014041562 719 157
-0.27801183 0.039104864 0.67672604 0.0014722251 690 151
-0.27434915 0.039047569 0.67727029 0.0014995848 675 148
-0.27057216 0.038972434 0.67745835 0.0015520726 667 146
-0.26742938 0.038987938 0.67917663 0.0014388316 685 150
-0.26429969 0.039005745 0.68089175 0.0014287677 688 150
-0.26075453 0.038961921 0.68148506 0.0014647469 667 146
-0.25728753 0.038928818 0.6822176 0.0015214458 622 136
-0.2541647 0.038947608 0.68381327 0.0015807567 605 132
-0.25131756 0.039009679 0.68612534 0.001563628 629 137
-0.24831918 0.039049588 0.68800503 0.0015239058 627 137
-0.2451552 0.03906418 0.68939465 0.0014711876 656 143
-0.24162172 0.039019484 0.68969196 0.0014325584 687 150
-0.23813666 0.038981505 0.69006109 0.001349601 757 165
-0.23479855 0.038966853 0.6907981 0.0013040099 811 177
-0.23161997 0.038978636 0.69196039 0.0013443362 775 169
-0.22840445 0.038984455 0.69297504 0.0015213628 668 146
-0.22530539 0.039010607 0.69431001 0.0016145343 608 133
-0.22348592 0.039262317 0.6996249 0.0016172956 574 125
-0.22014417 0.039250106 0.70020187 0.0015766647 591 129
-0.21587773 0.039070174 0.69774407 0.00150743 651 142
-0.21201867 0.038959589 0.69648117 0.0013445764 763 167
-0.21325614 0.039796639 0.71213496 0.0020754801 387 84
-0.20838742 0.039502647 0.70752239 0.0030572589 225 49
nan nan nan 0 177 38
-0.19866204 0.038888223 0.69769043 0.0030343707 263 57
-0.19679634 0.039162114 0.70314491 0.0015592137 662 145
-0.1928668 0.039027624 0.70123672 0.001366955 751 164
-0.19117856 0.039349835 0.70750582 0.0016053776 575 126
-0.19046913 0.039888285 0.71764255 0.002429371 329 72
nan nan nan 0 149 32
nan nan nan 0 134 29
-0.18517943 0.040924009 0.73749995 0.0035252622 201 44
-0.17852962 0.040194988 0.72470742 0.0019488571 472 103
-0.1751463 0.040187571 0.72489315 0.0019064345 467 102
-0.17518939 0.040981397 0.73951221 0.0022330198 366 80
nan nan nan 0 387 84
-0.15913136 0.03873587 0.69949055 0.003186434 231 50
-0.15673184 0.038942054 0.70343184 0.0034049633 201 44
-0.15727414 0.039903354 0.72099882 0.0033355823 225 49
-0.15409559 0.039941758 0.72187525 0.0028109541 256 56
-0.15260684 0.040429525 0.73085594 0.0034965235 191 41
nan nan nan 0 248 54
-0.14551878 0.040333364 0.72939223 0.0023941249 338 74
-0.14072782 0.03992809 0.72217369 0.0020905831 420 92
-0.13430625 0.039029315 0.70601016 0.0015493691 651 142
-0.13466233 0.0401044 0.72553766 0.0027377906 292 64
-0.1307597 0.039933629 0.72251374 0.0023329703 335 73
-0.12873438 0.040342242 0.72995937 0.0024542022 328 71
-0.12745866 0.041013986 0.74215466 0.0026249089 312 68
nan nan nan 0 553 121
-0.11354418 0.038607996 0.69866109 0.0047194501 141 30
nan nan nan 0 157 34
nan nan nan 0 287 62
nan nan nan 0 274 60
nan nan nan 0 343 75
-0.10035351 0.039758042 0.71941894 0.0020637524 439 96
-0.094259575 0.038619306 0.69878125 0.0015951459 593 130
-0.090023033 0.03818794 0.69093847 0.0014813184 660 144
nan nan nan 0 785 172
-0.086838074 0.03964068 0.71713018 0.0025856346 285 62
-0.083132342 0.039450414 0.71363574 0.0039977878 168 36
-0.079561204 0.039310977 0.71105796 0.004468909 147 32
-0.084002204 0.043288417 0.78293788 0.0034807776 204 44
nan nan nan 0 322 70
nan nan nan 0 353 77
nan nan nan 0 276 60
nan nan nan 0 242 53
nan nan nan 0 337 73
nan nan nan 0 438 96
-0.053657446 0.039542917 0.71475631 0.0026490598 314 68
-0.051307786 0.040286485 0.72813463 0.0028543826 288 63
nan nan nan 0 309 67
nan nan nan 0 487 106
nan nan nan 0 345 75
-0.03740621 0.039789703 0.71893317 0.0031209171 225 49
-0.034102943 0.03980599 0.71917921 0.0028129688 259 56
-0.030201569 0.039052408 0.70552015 0.0028272828 250 54
-0.027075743 0.039240707 0.70888156 0.0028119988 262 57
-0.023476768 0.038700797 0.69909227 0.0019889099 425 93
-0.02018968 0.038584895 0.69696695 0.0022190686 390 85
-0.017134679 0.038952664 0.70358247 0.0027673619 296 64
-0.013956754 0.039147645 0.7070812 0.0020974083 398 87
-0.010496362 0.038427528 0.69405633 0.0018559049 476 104
-0.0073054824 0.038494863 0.69525903 0.0025996233 314 68
-0.0043641655 0.041013021 0.74073058 0.0033719442 203 44
nan nan nan 0 253 55
0.0023037421 0.038186673 0.68968165 0.0026533664 274 60
0.0056190551 0.039103419 0.70624483 0.0034569888 194 42
0.0089676231 0.039493442 0.71330017 0.0040217843 163 35
0.012215526 0.039349705 0.71071988 0.002978412 263 57
0.015053643 0.038226251 0.69044852 0.0017779539 500 109
0.018140133 0.038015869 0.68667305 0.0015553532 608 133
0.021571295 0.038482957 0.69513929 0.0016679651 598 131
0.024775699 0.03847694 0.69506395 0.0017670305 546 119
0.02790831 0.038373586 0.69323426 0.0016660846 564 123
0.030998901 0.038239654 0.6908558 0.0017641841 497 108
0.034802608 0.038928356 0.70334357 0.003168571 241 52
0.037855882 0.038731772 0.69984037 0.002948388 283 62
0.040026065 0.037733577 0.68185431 0.0020110148 409 89
0.043820258 0.038300287 0.69214845 0.0024211141 316 69
0.048681468 0.039659284 0.71676576 0.0029591096 267 58
0.050677605 0.038659781 0.69876009 0.002706819 275 60
0.053030461 0.038035668 0.68753868 0.0015058166 651 142
0.056073364 0.037948977 0.6860317 0.0013444548 780 171
0.059586592 0.038172856 0.69014019 0.0019190805 488 106
0.062179673 0.037814446 0.68372136 0.0019094722 458 100
0.065520257 0.037923284 0.68575007 0.0013387996 777 170
0.069327876 0.038279969 0.69226074 0.0014562885 678 148
0.072606556 0.03832607 0.69315404 0.0022531741 349 76
0.075818844 0.038334705 0.69336808 0.0019620699 435 95
0.078878403 0.038268551 0.69222701 0.0014392394 731 160
0.080395602 0.037488341 0.67816556 0.00097931956 1353 255
0.08481282 0.03806819 0.68870407 0.0010410079 1173 255
0.088224679 0.038171232 0.69061327 0.0011901677 933 204
0.090755835 0.037899319 0.68573391 0.0011369684 1008 221
0.094440371 0.038111143 0.68960154 0.0017029075 527 115
0.096674733 0.037743017 0.68296927 0.0017118731 561 123
0.0999493 0.037791405 0.68386722 0.0012948966 853 187
0.10362165 0.037982646 0.68734312 0.0012207282 894 196
0.10665944 0.03793684 0.68652165 0.0017444658 534 117
0.11017478 0.038058635 0.68872434 0.0018651596 469 102
0.11360709 0.038145736 0.69029009 0.0014758324 665 145
0.11727376 0.038304642 0.69314474 0.0017570594 508 111
0.12065655 0.038364857 0.69420272 0.0025403756 336 73
0.12449419 0.038562857 0.69774181 0.0023484421 328 71
0.12854818 0.038816214 0.70226955 0.0029419847 260 57
nan nan nan 0 231 50
nan nan nan 0 351 76
0.14068386 0.039497744 0.71434325 0.0024207297 341 74
0.14178799 0.038897295 0.70336884 0.0023005756 339 74
0.14232975 0.038172875 0.69014031 0.0026407484 279 61
0.14735846 0.038657214 0.69874901 0.0027530151 269 58
nan nan nan 0 293 64
nan nan nan 0 263 57
nan nan nan 0 324 71
0.15674621 0.037812065 0.68270707 0.0017780291 530 116
0.16344343 0.038650338 0.69759458 0.0020571835 407 89
0.1625374 0.037692979 0.68005186 0.0027481157 295 64
0.16316509 0.037120871 0.66944784 0.0026343309 286 62
0.17116794 0.038216703 0.68889564 0.0022946291 344 75
0.17190458 0.03767981 0.67888266 0.0022271993 397 87
0.17585751 0.037854519 0.6816681 0.0018844049 494 108
0.18212898 0.038513344 0.69313627 0.00217219 384 84
0.18455619 0.038350504 0.68978357 0.002289356 345 75
0.18673836 0.038143173 0.68560594 0.0028848432 255 55
0.19047047 0.038254071 0.68711948 0.0029811652 240 52
nan nan nan 0 197 43
0.20066865 0.03899638 0.69937968 0.0037576249 192 42
0.20080359 0.038400464 0.688115 0.0024419692 320 70
0.20323864 0.038256209 0.68492126 0.0014451221 751 164
0.2070722 0.038375594 0.68641323 0.0012978616 812 178
0.21159659 0.038617425 0.69005322 0.0016292474 578 126
nan nan nan 0 308 67
nan nan nan 0 260 57
nan nan nan 0 163 35
nan nan nan 0 168 36
0.21818721 0.037005041 0.65740752 0.0020572008 397 87
0.23145525 0.03870802 0.68673813 0.0022157398 360 78
0.23088869 0.038082309 0.67468685 0.0019972534 443 97
0.23381153 0.038041301 0.67296857 0.0020368935 424 92
0.24175599 0.038807482 0.685467 0.0027346534 278 60
nan nan nan 0 221 48
nan nan nan 0 241 52
0.2456526 0.037910938 0.66627425 0.0024415085 325 71
0.25500885 0.038854949 0.68162704 0.0024796817 321 70
nan nan nan 0 187 41
nan nan nan 0 148 32
0.27993387 0.041086961 0.71656585 0.0042506722 164 35
0.23320247 0.033814248 0.58849275 0.003342435 215 47
0.24066991 0.034480214 0.59878457 0.002698659 278 60
0.26497486 0.037514251 0.65002018 0.0019523859 441 96
nan nan nan 0 339 74
0.27670807 0.038271945 0.66006517 0.0030392334 230 50
0.27973688 0.038249813 0.65808833 0.0015710322 642 140
0.28374293 0.038360294 0.65835732 0.0010780828 1100 241
0.28807837 0.038512349 0.65930068 0.0013047465 800 175
0.29049626 0.038407527 0.65582097 0.0015173741 619 135
0.29351169 0.038383126 0.65370226 0.0018525844 466 102
0.29623452 0.038321402 0.65094006 0.0020973277 392 85
0.29826197 0.038172003 0.64669335 0.0015336664 629 137
0.30705836 0.038882915 0.65699989 0.0012222604 976 213
0.3101193 0.038860269 0.65489316 0.00086616748 1647 255
nan nan nan 0 2003 255
0.31480482 0.038640078 0.64783001 0.0009270226 1427 255
nan nan nan 0 302 66
0.31966913 0.038450222 0.6414842 0.0027644048 268 58
nan nan nan 0 365 80
0.32646343 0.038495407 0.6393373 0.0018542527 473 103
0.32946154 0.038470741 0.63760698 0.0024709811 333 73
0.32132125 0.037158482 0.61467904 0.002628023 314 68
0.33163327 0.037984781 0.62725222 0.002447115 339 74
-0.33883363 0.037227254 0.5660587 0.007350964 79 17
nan nan nan 0 69 15
nan nan nan 0 60 13
-0.28541037 0.032173779 0.48776835 0.01287813 42 9
-0.29145986 0.033143234 0.50217634 0.012657562 48 10
nan nan nan 0 106 23
-0.20971268 0.024272183 0.36758414 0.0040223626 161 35
-0.21382487 0.024970533 0.37819546 0.0057932204 106 23
-0.21209764 0.024993435 0.3786647 0.0051348177 129 28
-0.19106242 0.022720691 0.34442168 0.0023068753 341 74
-0.18897919 0.02268051 0.34408104 0.0018232957 515 112
-0.18703632 0.022656586 0.34406313 0.0015325224 626 137
-0.18837857 0.023033891 0.35021961 0.0016566288 544 119
-0.18733111 0.023123391 0.35208201 0.0017101744 540 118
-0.18632042 0.023219196 0.35411394 0.0017643077 504 110
-0.18533245 0.023319704 0.35628781 0.0020019091 456 99
-0.18444125 0.023434477 0.35874575 0.001964079 443 97
-0.18359375 0.02355713 0.36138606 0.0019502381 431 94
-0.18340394 0.023767453 0.36543095 0.002007901 412 90
-0.18376443 0.024054043 0.37070841 0.0020917624 392 85
-0.18350673 0.024264731 0.37487042 0.0023280589 375 82
-0.18372035 0.024542708 0.38012034 0.0025247033 338 74
-0.18782616 0.025351809 0.39366272 0.0024619752 313 68
nan nan nan 0 262 57
nan nan nan 0 221 48
nan nan nan 0 184 40
-0.30271387 0.042629909 0.66895086 0.0030638131 252 55
-0.29919106 0.042595409 0.67015934 0.0017012988 536 117
-0.2943885 0.042375941 0.66843331 0.00130957 797 174
-0.29072508 0.042317357 0.66921365 0.0013196181 797 174
-0.28738523 0.042305082 0.67069817 0.0013412869 766 167
-0.28411692 0.042303182 0.67231679 0.0014464639 726 159
-0.28081104 0.042295575 0.67381072 0.0014908765 686 150
-0.27780148 0.042332936 0.67598557 0.0014681923 663 145
-0.27400386 0.042249683 0.67619336 0.0015227932 628 137
-0.27054936 0.042217966 0.67718059 0.0016778765 598 131
-0.26736253 0.04222776 0.67878991 0.0015439392 611 133
-0.26413071 0.042230591 0.68024367 0.0015466162 618 135
-0.26087427 0.042229515 0.68158972 0.0015337415 621 136
-0.2574974 0.042208672 0.68257046 0.0015916373 577 126
-0.25431755 0.04222 0.68402547 0.0015592314 604 132
-0.25101626 0.042211197 0.68510866 0.0016235451 599 131
-0.2479703 0.042245671 0.68684912 0.0015485323 615 134
-0.24467696 0.042238355 0.68786538 0.0016142782 626 137
-0.24102743 0.04216852 0.68781662 0.0014795632 654 143
-0.23774153 0.042161271 0.68874228 0.0017027222 547 119
-0.23555046 0.042350661 0.69284081 0.0022622701 339 74
-0.23213446 0.04232204 0.69333321 0.0030210621 259 56
-0.22489944 0.041586429 0.68218446 0.0044219471 161 35
nan nan nan 0 147 32
-0.22226697 0.042303577 0.69566035 0.0043444368 150 32
-0.22023834 0.042540539 0.70035696 0.0041995035 151 33
-0.21687993 0.042523909 0.70084399 0.0029209112 246 53
-0.21146065 0.042096514 0.69451517 0.0017728392 499 109
-0.20869148 0.042191595 0.69676381 0.0018173355 515 112
-0.20734295 0.042581435 0.70385188 0.003069421 221 48
-0.20355126 0.042473994 0.70268917 0.0020243423 419 91
-0.19997521 0.042408768 0.70218825 0.0014224253 693 151
-0.19700636 0.042472295 0.70378596 0.0028127171 254 55
nan nan nan 0 188 41
-0.19177368 0.042763092 0.70960778 0.0020921831 402 88
-0.1870921 0.042447537 0.70482367 0.001071115 1125 246
-0.1902 0.043919463 0.72970194 0.0043264255 166 36
-0.18918979 0.044476513 0.73937088 0.0037464935 204 44
-0.18183197 0.04353435 0.72408527 0.0021627259 376 82
-0.17706056 0.04318767 0.71866632 0.0026072236 299 65
nan nan nan 0 235 51
-0.17010425 0.043109253 0.717978 0.0025301664 324 71
-0.16751502 0.043297458 0.72138596 0.0018464515 473 103
-0.16041052 0.042302571 0.70505452 0.0014358197 723 158
-0.16158976 0.043496251 0.72517896 0.0022621166 353 77
-0.15706743 0.043173235 0.72000003 0.0030106795 248 54
nan nan nan 0 207 45
-0.15155582 0.043498434 0.72577912 0.0046631624 150 32
-0.14956094 0.043895375 0.73255324 0.002677205 279 61
-0.14616984 0.043891411 0.7326203 0.0022173601 367 80
-0.14168772 0.043551899 0.72706842 0.002027625 453 99
-0.13654095 0.042986695 0.71773082 0.0013494316 756 165
-0.13486199 0.043512277 0.72659022 0.0019306227 480 105
-0.12733208 0.042128798 0.70355558 0.0034454532 209 45
-0.12707338 0.043141618 0.72052544 0.0033406024 213 46
-0.12667485 0.044160027 0.73757863 0.0027041205 307 67
nan nan nan 0 365 80
-0.12539637 0.046192732 0.77158493 0.0049847267 131 28
-0.12044503 0.04566323 0.76275104 0.0036580586 193 42
nan nan nan 0 337 73
-0.10335834 0.041613422 0.69509637 0.0018893101 464 101
nan nan nan 0 600 131
-0.10060601 0.043180995 0.72124076 0.0020056767 414 90
-0.095845789 0.042543028 0.71055508 0.0021746687 402 88
-0.091500744 0.042050734 0.70229757 0.0029415106 274 60
-0.089475177 0.042627376 0.71188718 0.0020211746 424 92
-0.084997468 0.042035211 0.70195293 0.0017921682 491 107
-0.082173131 0.042246208 0.70542741 0.0020883272 403 88
nan nan nan 0 190 41
nan nan nan 0 258 56
nan nan nan 0 345 75
nan nan nan 0 275 60
-0.066502705 0.042620812 0.71139604 0.0024296045 318 69
-0.064667895 0.043594938 0.72759289 0.0030058285 273 59
-0.059565648 0.042352449 0.70679522 0.002500677 301 65
-0.057251558 0.043063313 0.71859676 0.0034078211 214 46
-0.054351222 0.04339347 0.7240451 0.002538244 314 68
nan nan nan 0 337 73
nan nan nan 0 228 49
nan nan nan 0 221 48
nan nan nan 0 225 49
nan nan nan 0 198 43
-0.033789992 0.042728834 0.71263504 0.0047402764 133 29
-0.030953322 0.043361258 0.72313881 0.004690046 134 29
-0.027131323 0.042599425 0.71039408 0.0028437718 259 56
-0.023308976 0.041627578 0.69415271 0.0027899237 263 57
-0.020217482 0.041859236 0.6979847 0.0022169768 363 79
-0.017178515 0.042308066 0.70544189 0.0023116393 349 76
-0.013901128 0.042242307 0.70432287 0.002741969 270 59
-0.010502241 0.041654501 0.6945045 0.00324718 236 51
nan nan nan 0 264 57
-0.00432454 0.0440288 0.73406833 0.0034356939 204 44
-0.00087854487 0.041309506 0.68872732 0.0027629177 260 57
0.0022942792 0.041200317 0.68690801 0.0025784948 298 65
0.0055672312 0.041972712 0.69979149 0.0027393789 280 61
0.0089020319 0.042473022 0.70814365 0.0035000404 194 42
0.012426349 0.043365993 0.72304779 0.0029509091 246 53
0.015227327 0.041890938 0.69847387 0.0029590779 262 57
0.018412257 0.041803032 0.69703239 0.0026583818 286 62
0.021323094 0.041211534 0.6871978 0.0020608765 421 92
0.024878481 0.041857645 0.69800431 0.0024442228 314 68
0.027650714 0.041189022 0.68689072 0.0028330402 256 56
0.031963017 0.042716116 0.71239853 0.0028162326 285 62
0.034802828 0.04217403 0.70340228 0.0030589772 236 51
0.037470978 0.041534152 0.6927768 0.0025838153 297 65
0.039982092 0.040834475 0.68115515 0.0019163345 439 96
0.043367121 0.04106427 0.68504006 0.0021032654 399 87
0.047592163 0.042004228 0.70077562 0.0030994413 236 51
0.050819859 0.042000368 0.70076823 0.0032588979 238 52
0.053664319 0.041699186 0.69580108 0.001818286 492 107
0.055935308 0.041011516 0.68438464 0.0017621929 504 110
0.058956616 0.040918052 0.68288356 0.0012631475 865 189
0.0622482 0.041012142 0.68451273 0.0012347341 877 192
0.065716527 0.041207973 0.68784028 0.0012739814 842 184
0.068847165 0.041183777 0.68749452 0.0014448557 703 154
0.073070221 0.041786429 0.69761229 0.0025887946 283 62
0.076975062 0.042163961 0.70397162 0.0023352723 341 74
0.078892939 0.041466597 0.69238126 0.0019197827 446 97
0.080394171 0.040612973 0.67817712 0.0014604413 671 147
0.086677261 0.042148508 0.70386559 0.0018993014 448 98
0.088450454 0.041459352 0.69239932 0.0020607684 393 86
0.089881703 0.04066347 0.67914456 0.0021022477 390 85
0.09349405 0.040874705 0.68270433 0.0013587531 817 179
0.09640485 0.040775463 0.68107253 0.0010515573 1144 250
0.099579349 0.040790491 0.68134278 0.0012770883 837 183
0.10309844 0.04094144 0.68387622 0.001408182 713 156
0.1061605 0.040907335 0.68331075 0.001476244 662 145
0.10935469 0.040924635 0.68359518 0.0013795138 739 162
0.11437973 0.041606963 0.69497848 0.0016641077 592 129
0.11818467 0.041820388 0.69851917 0.0015838485 615 134
0.11839165 0.040783092 0.68115872 0.0014788747 653 143
0.12141805 0.040745504 0.68048507 0.0015510214 619 135
0.12286136 0.04019193 0.67118251 0.0010905347 1079 236
0.12748002 0.040678803 0.67924196 0.001040977 1171 255
0.13063271 0.040685754 0.67927325 0.0010843208 1133 248
0.13366468 0.040655665 0.6786716 0.001043795 1158 253
0.1377397 0.040936947 0.6832518 0.0012485719 885 194
0.1419246 0.041237582 0.68813699 0.0014480633 679 148
0.14512065 0.041244023 0.68809491 0.0018004881 478 104
nan nan nan 0 352 77
nan nan nan 0 280 61
nan nan nan 0 349 76
0.15342315 0.040095955 0.668176 0.0020513325 417 91
0.15978424 0.040935125 0.68191397 0.0022043746 361 79
0.16440599 0.041304864 0.68780231 0.0026716096 304 66
0.16592041 0.040894698 0.68068111 0.0020968716 388 85
0.17102906 0.0413692 0.68826032 0.0020281314 412 90
0.17353687 0.041208744 0.68524832 0.0020587801 436 95
0.17252274 0.040232725 0.66865861 0.002270947 382 83
0.17956024 0.041135684 0.68327087 0.0022193436 361 79
0.18314737 0.041230589 0.6844238 0.0021174136 387 84
0.18533961 0.041013598 0.68037206 0.0028068731 256 56
0.1883267 0.040976815 0.6792829 0.0024995098 303 66
0.18907677 0.04046252 0.67025429 0.0017493333 505 110
0.19194858 0.040411592 0.66887724 0.0015517445 608 133
0.19326499 0.040040042 0.66216731 0.0011793099 984 215
0.20058073 0.040903568 0.67584246 0.0013450886 810 177
0.20720887 0.041602362 0.6867376 0.0016349219 565 123
0.21171179 0.04185969 0.6902945 0.0019478424 434 95
0.21839727 0.042534377 0.70068097 0.0025369471 324 71
0.22174144 0.042548008 0.70012689 0.0029162881 252 55
0.21349467 0.040369511 0.66350365 0.0030474369 234 51
0.22128285 0.041242059 0.67701244 0.0027093452 272 59
0.22320917 0.041012857 0.67238259 0.0017925201 496 108
0.23129354 0.041905768 0.68609345 0.0022948547 362 79
0.23217081 0.041486293 0.67826521 0.0032791013 215 47
nan nan nan 0 161 35
0.23297912 0.04051647 0.66040742 0.0030885434 225 49
0.24086152 0.041334108 0.67264801 0.0028535463 290 63
0.24408053 0.041340575 0.67162228 0.0022622172 374 82
0.24584113 0.041103046 0.66659445 0.0018428371 463 101
0.25423977 0.041967291 0.67937148 0.0021367681 385 84
0.25840628 0.042120021 0.68055469 0.0022327723 377 82
0.26171121 0.042130265 0.67938507 0.0023752986 330 72
nan nan nan 0 177 38
nan nan nan 0 148 32
nan nan nan 0 142 31
0.26675832 0.040915314 0.65417618 0.0021365581 376 82
0.27345654 0.041453414 0.66125381 0.0016156323 570 124
0.27703929 0.04151227 0.66062731 0.0013229682 779 170
0.28085923 0.041604914 0.6604979 0.0010476365 1156 253
0.28491509 0.041730031 0.66084415 0.0012931873 845 185
0.28949988 0.041928966 0.662319 0.002263783 349 76
0.28976175 0.041504305 0.65392983 0.0023088339 361 79
0.29201713 0.041371342 0.65014207 0.0020599847 411 90
0.29337591 0.041115597 0.64442992 0.0029341432 273 59
nan nan nan 0 287 62
0.31233975 0.042849075 0.66806787 0.0020745767 400 87
0.31806096 0.043178122 0.67143464 0.0013944425 767 168
0.31640622 0.042509396 0.65932316 0.0011145803 1052 230
0.31947893 0.042482998 0.65723634 0.0013254486 813 178
nan nan nan 0 371 81
nan nan nan 0 210 46
nan nan nan 0 361 79
nan nan nan 0 383 83
0.31536955 0.039895318 0.61018741 0.0023119836 335 73
0.31982291 0.040068623 0.6116786 0.0034492875 205 44
0.3229835 0.040078197 0.61077231 0.0023946525 348 76
-0.31336838 0.037078883 0.52359354 0.0085013723 67 14
nan nan nan 0 49 10
nan nan nan 0 37 8
nan nan nan 0 51 11
nan nan nan 0 125 27
-0.20920315 0.025846299 0.36351389 0.0044107749 164 35
-0.20905392 0.026057897 0.36643088 0.0054411446 130 28
-0.20829827 0.026197035 0.36841184 0.0048023639 141 30
-0.19427776 0.024655288 0.34683233 0.002474258 308 67
-0.19259581 0.024665503 0.34715793 0.0019820041 418 91
-0.19009694 0.024570324 0.34607831 0.0017520746 509 111
-0.18801738 0.024528069 0.34582007 0.001589601 590 129
-0.18670854 0.02458651 0.34705707 0.001627452 561 123
-0.18680416 0.024832765 0.35102364 0.0016386393 574 125
-0.18515216 0.024849193 0.35181618 0.0017613022 555 121
-0.18473899 0.025033817 0.35506001 0.0019032623 483 105
-0.18397187 0.02517361 0.35773689 0.0018805544 455 99
-0.18377818 0.025395412 0.36164448 0.0019823092 421 92
-0.1826351 0.025489137 0.36378688 0.0019727566 420 92
-0.18184651 0.025634715 0.36672011 0.002025224 414 90
-0.18258223 0.026000328 0.37285501 0.0021726182 388 85
-0.18240118 0.026241565 0.37725797 0.0022785885 347 76
-0.18638143 0.027092705 0.39049304 0.0024289319 315 69
-0.18756618 0.027551087 0.39813393 0.0026868905 279 61
nan nan nan 0 235 51
nan nan nan 0 188 41
nan nan nan 0 194 42
-0.2984094 0.045753423 0.66815138 0.0019004898 447 98
-0.29458135 0.045666806 0.66861421 0.0013842648 772 169
-0.29080808 0.045586828 0.66914874 0.0014398427 736 161
-0.28712189 0.045518849 0.66982937 0.0014204297 698 153
-0.28363594 0.045481421 0.67092639 0.0014209877 694 152
-0.28102821 0.045585576 0.6740815 0.0015306824 648 142
-0.27723393 0.045497458 0.67435783 0.001592363 608 133
-0.27384502 0.045474555 0.67555827 0.0015869539 580 127
-0.27062002 0.045478649 0.67711824 0.0016463217 566 124
-0.26746669 0.045495037 0.67881918 0.0016549997 541 118
-0.26439607 0.045526065 0.68069649 0.001635485 560 122
-0.26088274 0.045480695 0.68138599 0.0017011948 562 123
-0.25783265 0.045515951 0.68323815 0.0017534263 532 116
-0.2542966 0.045465227 0.68375337 0.0016328167 557 122
-0.25087017 0.045433033 0.6844995 0.0016424118 570 124
-0.24753794 0.045417286 0.68544644 0.001618453 572 125
-0.24444108 0.04544488 0.68700254 0.0017356515 545 119
-0.24149483 0.045501594 0.68895596 0.0019904871 416 91
-0.23934592 0.045712139 0.69320029 0.0028618863 249 54
-0.23723733 0.045936313 0.69761711 0.0032825249 210 46
-0.2315883 0.045471624 0.69152403 0.002881835 247 54
nan nan nan 0 148 32
-0.21466999 0.043366622 0.66122973 0.0031092782 231 50
nan nan nan 0 238 52
nan nan nan 0 122 26
-0.2139774 0.045183375 0.691315 0.0040060142 163 35
-0.20903866 0.044816721 0.68641752 0.0019358975 472 103
-0.20741042 0.045159459 0.69234806 0.001346741 759 166
-0.20859665 0.046135489 0.70797139 0.0021952917 360 78
-0.20358139 0.045749273 0.7026633 0.0017598248 536 117
-0.20023321 0.045731187 0.70296991 0.0025800399 304 66
nan nan nan 0 162 35
-0.18258096 0.04310656 0.66363299 0.0040595257 186 40
nan nan nan 0 295 64
-0.18925062 0.046241432 0.71285057 0.0015207563 628 137
-0.18640327 0.046355035 0.71503592 0.0020467762 408 89
-0.18667789 0.04726316 0.72945732 0.0019451492 442 96
-0.18336019 0.047278509 0.73007917 0.0025272309 300 65
-0.17582484 0.046186499 0.71356595 0.0029468944 252 55
-0.16919404 0.045294881 0.70010847 0.002990087 240 52
-0.16992159 0.046376787 0.71713185 0.002343422 340 74
-0.16758691 0.046649355 0.72162473 0.0025031513 306 67
-0.16462857 0.046755847 0.72352779 0.0024435774 319 69
-0.163864 0.047502708 0.73532259 0.0024268103 318 69
-0.15541941 0.046007704 0.71238941 0.0018165773 486 106
-0.152504 0.046120223 0.71432078 0.0033525531 218 47
-0.14842644 0.045878496 0.71074605 0.0030452963 243 53
nan nan nan 0 327 71
nan nan nan 0 238 52
-0.14424512 0.04774994 0.74015623 0.0030234936 245 53
-0.13818634 0.046852533 0.72634917 0.0017896207 534 117
nan nan nan 0 2438 255
-0.12944892 0.046125017 0.71523005 0.0011003134 1038 227
-0.13307196 0.04865475 0.75451946 0.0035796287 191 41
-0.12962648 0.048666436 0.75475001 0.0039301026 180 39
nan nan nan 0 180 39
nan nan nan 0 183 40
nan nan nan 0 273 59
nan nan nan 0 288 63
nan nan nan 0 275 60
-0.10683541 0.047804449 0.74144351 0.0033434804 227 49
-0.1022393 0.047258887 0.73296124 0.0024563381 309 67
-0.097262129 0.046493903 0.72106993 0.002408863 314 68
nan nan nan 0 219 48
nan nan nan 0 329 72
nan nan nan 0 439 96
nan nan nan 0 455 99
nan nan nan 0 231 50
nan nan nan 0 206 45
-0.07415273 0.046585649 0.72217017 0.0021559773 412 90
-0.071252726 0.046867676 0.72648406 0.002835813 251 55
-0.068433441 0.047233228 0.73209053 0.0028162706 265 58
-0.06198306 0.04500049 0.69742656 0.0022949588 381 83
-0.058782194 0.045011688 0.69754225 0.0021814979 406 89
nan nan nan 0 274 60
nan nan nan 0 271 59
nan nan nan 0 299 65
nan nan nan 0 248 54
nan nan nan 0 203 44
nan nan nan 0 219 48
-0.036094427 0.044796117 0.69382966 0.0031467357 246 53
-0.032950126 0.044873185 0.69497901 0.002950659 245 53
-0.030169129 0.045514971 0.7048772 0.0036921466 187 41
nan nan nan 0 270 59
nan nan nan 0 189 41
-0.020416899 0.045525089 0.70493108 0.0036349415 197 43
-0.017157644 0.045508452 0.70464718 0.0030783499 226 49
-0.013816988 0.04521763 0.70012242 0.0032165218 216 47
-0.010583928 0.045208875 0.69996947 0.0031596795 232 50
-0.0074612047 0.045870766 0.7102046 0.0027673487 298 65
-0.0041286168 0.045268733 0.70087504 0.0019392265 438 96
-0.00088770693 0.044952359 0.69597328 0.0015209339 651 142
0.0023400453 0.045255926 0.70067418 0.0013986339 724 158
0.0055396059 0.044978354 0.6963824 0.0013755818 784 171
0.0086247837 0.044316866 0.68615091 0.0013174351 820 179
0.011952767 0.044923235 0.69555408 0.0015548737 604 132
0.015211736 0.045068387 0.69782078 0.0020601635 399 87
0.018203447 0.044509355 0.68918824 0.0023989403 314 68
0.020908155 0.043519221 0.6738838 0.0021008954 388 85
0.024011213 0.043507278 0.6737296 0.0020678437 409 89
0.027173379 0.043592896 0.6750899 0.0021530087 371 81
0.031290136 0.045034807 0.69745904 0.0021036365 388 85
0.034430381 0.044933397 0.69593108 0.0016645301 559 122
0.037504032 0.044769805 0.69344264 0.0012806626 848 185
0.04063854 0.044698853 0.69239193 0.0011285844 1031 226
0.043797094 0.04466277 0.69188362 0.0011521806 983 215
0.046836071 0.044517916 0.68969226 0.0014537905 718 157
0.050856989 0.045265485 0.70132905 0.0020707888 419 91
0.053738024 0.044969749 0.69680327 0.0022817194 343 75
0.056038775 0.044249188 0.68569452 0.0025619245 301 65
0.058928493 0.044045817 0.68259948 0.0018347716 473 103
0.062262625 0.044178393 0.68471086 0.0019155163 434 95
0.066245653 0.044736385 0.69341624 0.0029138403 274 60
0.069846898 0.044997055 0.69751304 0.0024951824 323 70
0.073219381 0.045093887 0.69906944 0.0027170454 304 66
0.075773202 0.04469962 0.69301015 0.0023871756 349 76
0.077540874 0.043892246 0.68054229 0.001993289 453 99
0.07903605 0.042999398 0.66674441 0.0017394029 541 118
0.087127075 0.045627542 0.70754069 0.002576581 284 62
0.090445802 0.045657028 0.70803821 0.0031527621 241 52
0.090248972 0.043971602 0.68193513 0.0016322139 568 124
0.093207851 0.043885391 0.68062681 0.0011900305 938 205
0.096518807 0.043965179 0.68188691 0.0014185349 694 152
0.099579744 0.043929625 0.68135142 0.0019621032 431 94
0.10284401 0.043983206 0.68219131 0.0016442877 561 123
0.1051623 0.043641046 0.67688507 0.0010700866 1117 244
0.10898349 0.043924313 0.6812706 0.0014030365 774 169
0.11242281 0.044042125 0.68308055 0.0018514574 469 102
0.11763134 0.044827741 0.69523722 0.0016027556 602 131
0.11876348 0.044059426 0.68328303 0.0012702568 864 189
nan nan nan 0 1970 255
nan nan nan 0 2343 255
0.12741508 0.043786854 0.67886955 0.00087663927 1585 255
0.13033825 0.043717887 0.67771178 0.0010588343 1195 255
0.1327522 0.043485351 0.67400438 0.0012436778 868 190
0.13599685 0.043529324 0.67456824 0.0012449864 874 191
0.1412459 0.044198565 0.68480313 0.0011648337 985 215
0.1435602 0.043940268 0.68064898 0.0011160334 1052 230
0.14792849 0.044308253 0.68617767 0.0014309398 715 156
nan nan nan 0 382 83
0.15886627 0.045631159 0.70625234 0.003203169 221 48
0.1585549 0.044625826 0.69046009 0.0038417785 179 39
0.16128004 0.044497918 0.68822795 0.0028529442 253 55
0.16267313 0.044014547 0.68047935 0.0021294712 419 91
0.1645284 0.043672189 0.67489302 0.001561053 598 131
0.16799326 0.043761872 0.6759612 0.0019078038 457 100
0.17640693 0.045113873 0.69649166 0.0024459551 312 68
0.17645654 0.044316739 0.68381226 0.0031975277 225 49
0.17976755 0.044352356 0.68396193 0.0021262229 371 81
0.18303576 0.044376358 0.68390399 0.0020193153 401 87
0.18591626 0.044307157 0.68238139 0.0024958523 303 66
0.18644129 0.043688312 0.67237133 0.0018289465 472 103
0.18865453 0.043478932 0.66864204 0.0013829925 777 170
0.19294219 0.043746687 0.67221844 0.0014488606 689 151
0.1943675 0.043367248 0.66581953 0.0014366937 744 163
0.1950276 0.042831663 0.65700287 0.0016934116 556 121
nan nan nan 0 582 127
0.21593767 0.045980766 0.70392394 0.0017815605 502 110
0.21580167 0.045263123 0.69220126 0.0018720715 460 100
0.22076394 0.045620214 0.69688177 0.0023872147 327 71
0.22001272 0.044803411 0.68359917 0.0035825896 203 44
0.2222959 0.044619109 0.67994571 0.0044217198 165 36
nan nan nan 0 268 58
nan nan nan 0 264 57
nan nan nan 0 237 51
0.22848772 0.043373611 0.65729463 0.004415472 143 31
0.23306313 0.043650072 0.66045642 0.0030627721 229 50
0.24202293 0.044729546 0.67569238 0.0022655262 347 76
0.24142043 0.044036653 0.6641016 0.0019047791 446 97
0.24540243 0.044187069 0.66519797 0.0017850423 490 107
0.25503939 0.04533897 0.68129086 0.0020749066 391 85
0.25880951 0.045432072 0.68139368 0.0022146718 380 83
0.26094127 0.045238845 0.67715961 0.0017678204 497 108
0.26268968 0.044984695 0.67198235 0.0015734043 594 130
0.26584139 0.044974092 0.67040741 0.0018446372 463 101
0.2691927 0.044997107 0.66929042 0.0019955221 406 89
0.27086949 0.044742983 0.66401744 0.0014302052 695 152
0.27217504 0.044434175 0.65791273 0.00094923249 1377 255
nan nan nan 0 2002 255
nan nan nan 0 1900 255
0.29190794 0.046044316 0.67680573 0.0015392513 610 133
0.29369161 0.045809355 0.6716513 0.0030299688 233 51
nan nan nan 0 250 54
0.28812319 0.043960884 0.64122611 0.0021507393 395 86
0.29175192 0.044034459 0.64061731 0.0016526371 546 119
0.29135218 0.043504942 0.63124949 0.0019822312 413 90
0.30485842 0.045041125 0.65182185 0.0018977253 452 99
0.31509319 0.046066929 0.66492516 0.0018905404 472 103
0.31621084 0.045752369 0.65867996 0.0016591405 589 129
0.31845048 0.045604926 0.65489322 0.0015568995 614 134
0.32306659 0.045797352 0.6560322 0.001990166 448 98
nan nan nan 0 193 42
nan nan nan 0 284 62
nan nan nan 0 399 87
0.32182068 0.043844283 0.62250865 0.0019825697 417 91
0.32529438 0.043890271 0.62199754 0.0022946056 372 81
0.3322427 0.044399712 0.6281507 0.0020962029 377 82
-0.2792494 0.03540279 0.46666077 0.011642307 44 9
nan nan nan 0 38 8
nan nan nan 0 63 13
-0.21361138 0.027786085 0.36512613 0.004728334 138 30
-0.21062821 0.027637795 0.36294979 0.0041113715 156 34
-0.20867285 0.027622938 0.36260569 0.0042799092 147 32
-0.2015897 0.026922986 0.35335055 0.0038691044 188 41
-0.19665915 0.026500521 0.34781846 0.00264434 305 66
-0.19488554 0.026499666 0.34789932 0.0023355929 358 78
-0.19323455 0.026515618 0.34828043 0.001977822 424 92
-0.19117263 0.026474958 0.34799713 0.0018860785 494 108
-0.18831745 0.026322655 0.34632191 0.0016217614 574 125
-0.18678297 0.026353834 0.34713474 0.0016824991 534 117
-0.18554468 0.026427791 0.3485857 0.001645208 581 127
-0.18490094 0.026588663 0.35125712 0.0016487909 563 123
-0.18380535 0.026687043 0.35317394 0.0016991644 534 117
-0.18309669 0.026844075 0.35593379 0.0018414858 471 103
-0.1829028 0.027080426 0.35981119 0.0020203176 423 92
-0.18236992 0.027270796 0.36313933 0.0021244271 406 89
-0.18114318 0.027360206 0.36517501 0.0020904711 413 90
-0.17991462 0.027451154 0.36727405 0.0021127148 384 84
-0.18081395 0.027871981 0.37383413 0.0023391936 362 79
-0.18100707 0.028191561 0.37908587 0.0023667142 328 71
-0.18481426 0.029086636 0.39213681 0.002649121 289 63
-0.1873596 0.029800005 0.40280733 0.0028691238 252 55
nan nan nan 0 208 45
nan nan nan 0 175 38
-0.29567707 0.048573855 0.66176009 0.0022159549 359 78
-0.29396364 0.048827309 0.66693664 0.0014537454 702 153
-0.29067662 0.048822146 0.66857129 0.0014919281 687 150
-0.28679532 0.048715908 0.66879416 0.0015161078 653 143
-0.28362262 0.048728999 0.67062366 0.0014834407 649 142
-0.28043148 0.048739173 0.67238158 0.0015751818 621 136
-0.27743903 0.048784524 0.674591 0.0015496372 608 133
-0.27387819 0.048729829 0.67537844 0.0016072936 568 124
-0.27058333 0.048721708 0.67676878 0.0016515964 559 122
-0.26783723 0.048813399 0.679506 0.0016897476 534 117
-0.26403096 0.048711754 0.67950803 0.0016528267 554 121
-0.26127085 0.048802998 0.68215585 0.0016983496 533 116
-0.25772735 0.048748367 0.68272084 0.0017289919 514 112
-0.25439784 0.048733316 0.68379277 0.001687995 529 115
-0.25096494 0.048697833 0.68453103 0.001640416 552 121
-0.24784699 0.048723325 0.68608069 0.0018937852 491 107
-0.24528278 0.048859797 0.68915176 0.002101514 387 84
-0.24208538 0.048872117 0.69043005 0.0029754161 256 56
nan nan nan 0 162 35
-0.23075362 0.047873531 0.67835641 0.002437856 314 68
-0.22965066 0.048313152 0.68554753 0.00146078 661 144
-0.22686204 0.048405625 0.68778116 0.0014269707 716 156
-0.2236674 0.048412874 0.68876457 0.0013088455 796 174
-0.21893837 0.04808335 0.6849106 0.0033003569 231 50
nan nan nan 0 140 30
nan nan nan 0 134 29
-0.20889045 0.04798504 0.68577611 0.0018739562 463 101
-0.20737281 0.048377536 0.69207233 0.0010673092 1119 245
-0.20453651 0.048469942 0.69404656 0.0011891964 947 207
-0.20260219 0.048782509 0.69914377 0.0015995388 625 137
-0.19963145 0.048851646 0.70072269 0.0014076005 704 154
-0.19667131 0.048925709 0.70234108 0.0013665754 788 172
-0.19381891 0.04902954 0.70435625 0.0015807935 604 132
-0.18967177 0.048803777 0.70160419 0.001304046 807 176
-0.18644868 0.048812054 0.70218426 0.0012905265 821 180
-0.18669268 0.049744438 0.71603721 0.0016615558 583 127
nan nan nan 0 294 64
nan nan nan 0 272 59
-0.17896494 0.050370537 0.72621584 0.0022790784 361 79
-0.17258507 0.049504086 0.71405309 0.0019609067 430 94
nan nan nan 0 266 58
nan nan nan 0 189 41
-0.16276874 0.049530827 0.71528214 0.0028769872 258 56
-0.16274939 0.0505508 0.73025262 0.0022947695 344 75
-0.15869224 0.050333228 0.72732788 0.0025288612 308 67
-0.15163998 0.049135763 0.71021718 0.0021730869 369 80
-0.14760181 0.048883621 0.70674562 0.0021471353 418 91
nan nan nan 0 391 85
nan nan nan 0 222 48
nan nan nan 0 290 63
-0.13734609 0.049895123 0.72189838 0.0018229026 527 115
nan nan nan 0 709 155
-0.1315065 0.050206412 0.72657299 0.0017361902 521 114
-0.13371325 0.052382592 0.75813353 0.0035732656 196 42
-0.12994468 0.052271884 0.75658512 0.0046359436 142 31
nan nan nan 0 142 31
nan nan nan 0 228 49
nan nan nan 0 304 66
-0.11220497 0.050561436 0.73192292 0.0024543474 314 68
-0.11038861 0.051284112 0.74238348 0.0031038481 249 54
-0.10692214 0.051261887 0.74205238 0.0029829054 242 53
nan nan nan 0 237 51
nan nan nan 0 237 51
nan nan nan 0 249 54
nan nan nan 0 313 68
nan nan nan 0 214 46
nan nan nan 0 236 51
nan nan nan 0 182 39
-0.076334067 0.049175233 0.71156359 0.0046052495 136 29
-0.07448604 0.050138779 0.7254526 0.0052796062 126 27
-0.071443453 0.050351016 0.728468 0.0047214888 151 33
-0.067195117 0.049692497 0.71888447 0.0019589423 431 94
nan nan nan 0 210 46
-0.061248984 0.050251875 0.72686136 0.0034188852 226 49
-0.057689488 0.050071143 0.72418988 0.0030776989 227 49
-0.053804986 0.04956878 0.7168678 0.003363315 204 44
-0.050916057 0.049977887 0.72272867 0.0039142272 177 38
nan nan nan 0 245 53
nan nan nan 0 355 77
-0.039552178 0.048310749 0.69846886 0.0017077264 558 122
-0.036291122 0.048258569 0.69766873 0.0015545784 658 144
-0.032902688 0.048010364 0.69403762 0.0014210435 708 155
-0.029456468 0.047615238 0.6882863 0.0014157702 760 166
-0.026381535 0.047797319 0.69088209 0.0013954858 727 159
-0.023429485 0.048282679 0.69786477 0.0018431032 465 101
-0.019856222 0.047438566 0.68563545 0.002301662 336 73
nan nan nan 0 344 75
nan nan nan 0 404 88
-0.010571404 0.048381954 0.69920719 0.0018721553 490 107
-0.0073603545 0.048484135 0.70067143 0.0017067802 530 116
-0.0041244342 0.048454266 0.70023167 0.0020467809 404 88
-0.00087399816 0.047420621 0.68529063 0.0014523269 759 166
0.0023169469 0.048011035 0.69382387 0.0012344564 887 194
0.0055248872 0.048064221 0.69459796 0.0014824755 665 145
0.0086013349 0.047354423 0.68435025 0.001542255 675 148
0.011792939 0.047489595 0.6863178 0.001291487 854 187
0.01510305 0.047943719 0.69289941 0.0012207422 936 205
0.018290786 0.047918569 0.69255871 0.0012530078 883 193
0.020932069 0.046682213 0.67471588 0.0012548199 858 188
0.024094449 0.046777677 0.67612565 0.0012203687 903 197
0.028103584 0.048306726 0.69826126 0.0012993603 814 178
0.031300202 0.048268273 0.69774354 0.0014357446 736 161
0.034298893 0.04796024 0.69333172 0.0016504445 554 121
0.036856472 0.047140561 0.68152547 0.0012460516 955 209
0.040567927 0.047809582 0.69124424 0.0010156675 1242 255
0.043722358 0.047772471 0.69075656 0.0010233494 1208 255
0.046245009 0.04709699 0.68103957 0.0010829665 1093 239
0.049966153 0.047650371 0.68909401 0.0012164864 912 199
nan nan nan 0 1032 226
nan nan nan 0 1027 225
0.057528172 0.046071645 0.66642082 0.0014122878 693 151
0.06185215 0.047023084 0.68023729 0.0018959633 440 96
0.066226318 0.047919024 0.69325268 0.0023132779 371 81
0.069737419 0.048136737 0.69645607 0.0020813451 446 97
0.072356805 0.047746863 0.6908673 0.0014759147 667 146
0.074609093 0.047157828 0.68239355 0.0010742097 1110 243
0.077670038 0.047106896 0.68170333 0.0010038053 1309 255
0.080948062 0.04718646 0.68289834 0.0010654239 1135 248
0.084218524 0.047255825 0.68394232 0.0015957011 626 137
0.090014942 0.048686408 0.70468426 0.002553944 314 68
nan nan nan 0 420 92
0.092746511 0.046788484 0.67726982 0.002156669 377 82
0.096689962 0.047190227 0.68310446 0.0018225906 526 115
0.098999232 0.046794213 0.67738444 0.0010275587 1194 255
0.10238912 0.046917573 0.67917526 0.0011560635 983 215
0.10557323 0.046942122 0.67952776 0.0011951233 934 204
0.11026922 0.04761814 0.68930185 0.0020386528 431 94
0.11410195 0.04789396 0.69327289 0.0027311081 304 66
0.11722878 0.047866516 0.69284391 0.0019706576 465 101
0.11807071 0.046932314 0.67927974 0.0013640266 783 171
0.11989024 0.046424896 0.67188251 0.00099091616 1342 255
0.12394877 0.046788219 0.67707503 0.00099894102 1263 255
0.12694712 0.046743322 0.6763466 0.0010548262 1176 255
0.13114555 0.047131877 0.68187523 0.001311971 802 175
0.13390023 0.046995509 0.67979473 0.0017980593 487 106
0.13760827 0.047192339 0.68251824 0.0016484468 583 127
0.13980864 0.046874885 0.6777879 0.0013101557 804 176
0.14284912 0.046846814 0.67722613 0.0013164142 794 174
0.14632881 0.046960909 0.67870122 0.0019229093 477 104
0.15023474 0.047204144 0.68202269 0.0016782976 542 118
0.15492783 0.047679652 0.68867725 0.0023266564 365 80
0.15999812 0.048249766 0.69667268 0.0030856731 229 50
0.16337126 0.04829571 0.69707453 0.003019314 238 52
0.1666797 0.048321113 0.69715703 0.0027240131 271 59
0.16517492 0.046976645 0.67746019 0.0035170317 224 49
0.16419746 0.045829412 0.66060024 0.0033936775 234 51
0.17411393 0.047709167 0.68734193 0.0021186206 413 90
0.17869779 0.048086483 0.69239527 0.0026649372 299 65
0.18005143 0.047596589 0.68493545 0.0017278187 508 111
0.18363152 0.047702026 0.68601799 0.0025333895 293 64
nan nan nan 0 329 72
nan nan nan 0 457 100
0.18595575 0.045919288 0.65895337 0.0014973357 649 142
0.19271024 0.046816245 0.67127901 0.0018440267 495 108
nan nan nan 0 297 65
nan nan nan 0 290 63
0.20655593 0.047853976 0.68428302 0.0019461603 431 94
0.21173905 0.048308395 0.69007897 0.0016928312 559 122
0.20689487 0.046495751 0.66347408 0.0013562902 754 165
0.21255538 0.047062509 0.67080432 0.0015750835 593 130
0.2251759 0.049131386 0.69946301 0.0028100908 275 60
0.22843288 0.049127176 0.6985324 0.004518454 142 31
nan nan nan 0 135 29
nan nan nan 0 285 62
0.23443526 0.048338216 0.68449676 0.0026029265 303 66
0.23209177 0.047205895 0.66746205 0.0024831397 323 70
0.23303179 0.046762794 0.66016364 0.0022841222 344 75
nan nan nan 0 270 59
nan nan nan 0 235 51
nan nan nan 0 260 57
0.2491765 0.047461908 0.66539997 0.0021432678 371 81
0.25840262 0.048601873 0.6800825 0.0021757032 368 80
0.25943637 0.048191827 0.67301124 0.0019065754 471 103
0.26251906 0.048167758 0.67129815 0.0017336103 547 119
0.26595461 0.048208229 0.67044044 0.0016566933 573 125
0.26772034 0.047948673 0.6653744 0.0013458938 769 168
0.27147496 0.048047241 0.6652419 0.0011285831 1025 224
0.27483723 0.048074879 0.66408443 0.00089685764 1531 255
nan nan nan 0 1814 255
0.28403884 0.048551686 0.66745198 0.00098647748 1276 255
0.29181769 0.049319144 0.67631924 0.0017652647 506 110
0.29535386 0.049360439 0.67517447 0.0031503923 227 49
0.28435302 0.046998139 0.64121175 0.0025829282 292 64
0.28877896 0.0472093 0.64242029 0.0017372337 541 118
0.29629707 0.047915962 0.65033013 0.0015276538 654 143
0.30103117 0.048162118 0.65195477 0.0015713089 611 133
0.30405828 0.04813287 0.64985013 0.0014949766 641 140
0.30132627 0.047202069 0.63562346 0.0018602478 458 100
0.30379391 0.047096618 0.63257235 0.002502966 325 71
0.30975264 0.047529001 0.63676983 0.0018360552 463 101
0.32020128 0.048634574 0.64998221 0.0018518248 488 106
nan nan nan 0 357 78
nan nan nan 0 186 40
nan nan nan 0 312 68
0.32847658 0.047948748 0.63520962 0.0021807023 377 82
0.3310926 0.047864664 0.63292754 0.0017977303 478 104
0.33542708 0.048028242 0.63403171 0.0018113577 482 105
-0.31393704 0.042454701 0.52471995 0.018453592 32 7
nan nan nan 0 68 14
-0.21554948 0.029650824 0.36562213 0.0045993621 135 29
-0.21313554 0.029573092 0.36434928 0.0042454237 149 32
-0.21165098 0.029624091 0.36473864 0.0047704759 146 32
-0.20590554 0.029074345 0.35781249 0.0035053182 192 42
-0.19865495 0.028300375 0.34821084 0.0024140482 312 68
-0.19667608 0.028270258 0.34784195 0.0022928012 350 76
-0.19506732 0.028293278 0.34820604 0.0022042536 359 78
-0.19334207 0.028299665 0.34844509 0.0021103113 381 83
-0.19141199 0.028275916 0.34839213 0.0019900782 460 100
-0.18887335 0.028160987 0.34729221 0.0017911306 490 107
-0.18696538 0.028138811 0.34741044 0.0017030167 530 116
-0.18565783 0.028207434 0.34872365 0.0016037391 584 128
-0.18430074 0.028269781 0.35003132 0.0015572301 615 134
-0.18221833 0.028220993 0.35002887 0.0016357285 568 124
-0.18147936 0.028381355 0.35268381 0.0018545963 483 105
-0.18196885 0.028738901 0.35785744 0.0019392497 453 99
-0.18115434 0.028895576 0.36059338 0.0019833334 425 93
-0.18029164 0.029047644 0.36332458 0.0021510974 421 92
-0.17925778 0.029174952 0.36579204 0.0021635909 394 86
-0.17872539 0.029387331 0.36936802 0.0021708545 372 81
-0.18099503 0.030069634 0.37890396 0.0024208368 342 74
-0.18239342 0.030619999 0.38683647 0.0027181853 306 67
-0.18597989 0.031553265 0.39966875 0.002941001 258 56
nan nan nan 0 219 48
nan nan nan 0 189 41
nan nan nan 0 289 63
-0.29272065 0.051863343 0.66382354 0.001481119 652 142
-0.29018098 0.051989261 0.66713768 0.0014755907 675 148
-0.28733242 0.052062061 0.66975391 0.0015375044 619 135
-0.2839264 0.052034371 0.67105126 0.0015490318 610 133
-0.28064248 0.052028675 0.67259955 0.0015822984 580 127
-0.27753085 0.052055154 0.67452955 0.0016794073 561 123
-0.27400082 0.052002858 0.67540002 0.0017358337 542 118
-0.27056655 0.051967695 0.67645061 0.0016590222 543 119
-0.26728642 0.051961653 0.67783707 0.0016808129 536 117
-0.26457933 0.05206823 0.68065238 0.0017238875 515 112
-0.26117277 0.052038096 0.68163836 0.0017827357 493 108
-0.2575857 0.051970784 0.68208992 0.0018121029 468 102
-0.25440136 0.051984031 0.68355227 0.0019343351 452 99
-0.25165442 0.052088164 0.68616706 0.0018931571 444 97
-0.24920343 0.052257083 0.6895963 0.0021536793 401 87
-0.25177374 0.053497441 0.70715022 0.0025537547 293 64
nan nan nan 0 170 37
nan nan nan 0 170 37
-0.23336884 0.051644936 0.68583268 0.0027343261 291 63
-0.22977673 0.051563412 0.6857186 0.0023551148 323 70
-0.22659431 0.051572822 0.68677038 0.0028117565 264 57
-0.22323014 0.051540531 0.68722528 0.0017229147 535 117
-0.22031023 0.051611375 0.68901551 0.0017766731 490 107
nan nan nan 0 299 65
-0.21722966 0.052425381 0.7014811 0.0046137543 142 31
-0.21054101 0.051589571 0.69102681 0.0018420635 481 105
-0.20798606 0.051756408 0.69395643 0.0012614792 870 190
-0.20521142 0.051872972 0.69617999 0.0013334071 799 175
-0.20249352 0.052007869 0.69861764 0.0014205301 715 156
-0.19981621 0.052157756 0.70122582 0.0015400578 616 135
-0.19670501 0.052197486 0.70232189 0.0018045048 500 109
-0.19345137 0.052200112 0.702887 0.0022169645 378 82
-0.19083387 0.052377429 0.70577466 0.0020806154 385 84
-0.18812627 0.052535776 0.70837957 0.0018248664 468 102
-0.19969806 0.056758251 0.76579142 0.0023976772 352 77
nan nan nan 0 253 55
nan nan nan 0 193 42
nan nan nan 0 166 36
-0.17282766 0.052879717 0.71496207 0.002796114 296 64
-0.17348118 0.05411483 0.73197931 0.00235777 332 72
nan nan nan 0 493 108
nan nan nan 0 330 72
nan nan nan 0 183 40
nan nan nan 0 150 32
-0.15159009 0.052395351 0.70992142 0.0034407952 203 44
-0.14740713 0.052074857 0.70575655 0.0023076751 385 84
nan nan nan 0 350 76
nan nan nan 0 392 85
nan nan nan 0 499 109
-0.13335326 0.051675342 0.70087457 0.0024009347 340 74
nan nan nan 0 350 76
-0.1278218 0.052054089 0.70618689 0.0021087537 386 84
nan nan nan 0 274 60
nan nan nan 0 188 41
-0.13163894 0.058041919 0.78760397 0.0042605046 173 37
nan nan nan 0 267 58
nan nan nan 0 280 61
nan nan nan 0 214 46
nan nan nan 0 240 52
-0.10462648 0.053506497 0.72612566 0.0026912931 307 67
-0.10146306 0.053602535 0.72741628 0.0025918894 303 66
nan nan nan 0 228 49
-0.092479192 0.052312035 0.70985878 0.0025247915 312 68
-0.088892154 0.052126445 0.70730942 0.0025590889 334 73
nan nan nan 0 250 54
nan nan nan 0 227 49
nan nan nan 0 177 38
-0.075799309 0.052087229 0.70661181 0.0037876046 198 43
-0.072780937 0.052258201 0.70888191 0.003583119 205 44
-0.07032717 0.0528697 0.71712512 0.0031571083 232 50
-0.067804314 0.053487014 0.7254445 0.002500748 329 72
nan nan nan 0 225 49
-0.060324214 0.052793816 0.71593422 0.0031332897 221 48
-0.056433775 0.052247781 0.70847559 0.0031270888 239 52
-0.052719973 0.051808245 0.70246273 0.0029031273 252 55
-0.050625078 0.053006213 0.71865267 0.0026146357 290 63
-0.047241423 0.052928116 0.71754211 0.0019879853 422 92
-0.042910665 0.051697224 0.70080614 0.0021176387 373 81
