# .PCD v0.7 - Point Cloud Data file format
VERSION 0.7
FIELDS x y z noise intensity gray
SIZE 4 4 4 4 2 1
TYPE F F F F U U
COUNT 1 1 1 1 1 1
WIDTH 862
HEIGHT 1
VIEWPOINT 0 0 0 1 0 0 0
POINTS 862
DATA ascii
0.035597891 -0.093856454 0.24021553 0.0019692793 428 87
0.036888577 -0.094193593 0.24087302 0.0020585149 404 82
0.038006939 -0.094083562 0.24037889 0.0021537533 392 80
0.039066672 -0.093839243 0.23953508 0.0021569985 395 80
0.040319238 -0.094058834 0.23986791 0.0022561222 386 78
0.041436505 -0.093959332 0.2393792 0.0022450711 372 76
0.042610694 -0.09399081 0.23921683 0.002274011 394 80
0.043643411 -0.093716837 0.2382703 0.0022123647 402 82
0.044823609 -0.093765512 0.23813726 0.0020458638 399 81
0.045885734 -0.093570963 0.23737966 0.0019827988 427 87
0.047020286 -0.093530044 0.23700523 0.0020680919 401 82
0.048120264 -0.09342397 0.23645911 0.0022029125 395 80
0.04962996 -0.094099686 0.2378832 0.0021648353 389 79
0.050478458 -0.093519516 0.23612542 0.0021043234 386 78
0.051720057 -0.09367729 0.23622577 0.0022293797 365 74
0.053100906 -0.094074868 0.23692292 0.0022665716 366 74
0.054043598 -0.09369579 0.23565824 0.0021644181 400 81
0.054955829 -0.093280889 0.23430072 0.0021843628 386 78
0.055950563 -0.093020193 0.23332782 0.0022389865 380 77
0.057126172 -0.093064636 0.2331167 0.0020785634 391 79
0.058560926 -0.093521193 0.23393214 0.0021882961 397 81
0.059430223 -0.093074508 0.23248492 0.0022202544 357 73
0.060409121 -0.092813171 0.23150063 0.0022559608 372 76
0.061961155 -0.093425743 0.232693 0.0021001128 386 78
0.063005969 -0.093265109 0.23195685 0.0021476515 387 79
0.06404046 -0.093095228 0.2311988 0.0022605695 383 78
0.065463759 -0.0934866 0.23183459 0.0021031017 392 80
0.066635281 -0.093511052 0.23156087 0.0021585517 373 76
0.06806197 -0.093886696 0.23215829 0.0022200039 356 72
0.069176883 -0.09382686 0.2316819 0.0022297956 348 71
0.069859259 -0.093191996 0.22979341 0.0021356002 375 76
0.07081046 -0.092930511 0.22883525 0.0021930337 363 74
0.072047576 -0.093046613 0.22881527 0.0022425866 348 71
0.073629573 -0.093597487 0.22987157 0.0022983456 352 71
0.074891493 -0.09373074 0.2299107 0.0022841997 365 74
0.076352455 -0.094105244 0.23055227 0.0024081457 319 65
0.077292711 -0.093836389 0.22963071 0.0025372279 306 62
0.078015231 -0.093315028 0.22810826 0.0023888564 320 65
0.079125434 -0.093265794 0.22775754 0.002508264 295 60
0.080114335 -0.093077049 0.22708407 0.0023647444 320 65
0.0810524 -0.092835411 0.2263011 0.0026523957 301 61
0.082480721 -0.093154222 0.22690384 0.0026583825 280 57
0.083944052 -0.093503267 0.22759989 0.0030734383 262 53
0.084955513 -0.093346328 0.22708586 0.0028361389 257 52
0.085721008 -0.092926957 0.22595677 0.0027040583 270 55
0.086945891 -0.093010083 0.22607341 0.0027634348 260 53
0.087883472 -0.09278772 0.22547156 0.003159814 244 49
0.089111567 -0.092873842 0.22564402 0.0029577722 248 50
0.089838721 -0.092442326 0.2245838 0.0028649569 251 51
0.090922989 -0.09238448 0.22445668 0.002984788 238 48
0.091773272 -0.092093289 0.22378784 0.0033684212 222 45
0.092267372 -0.091456145 0.22230324 0.0031167401 223 45
0.092785113 -0.090857565 0.2209366 0.0033601483 198 40
0.094294921 -0.091233157 0.22196364 0.0035875014 199 40
0.095158435 -0.09098193 0.22149076 0.0035990991 204 41
0.095866039 -0.09058924 0.22069708 0.0035823444 214 43
0.096280217 -0.08993154 0.21928002 0.0036431586 179 36
0.097839758 -0.090346463 0.22050163 0.0042108111 165 33
0.098955646 -0.090346985 0.22073629 0.0040177084 183 37
0.099307656 -0.089657843 0.21930702 0.004254079 171 34
0.099696733 -0.089016981 0.21801434 0.004323815 164 33
0.099034689 -0.087461829 0.21449701 0.0039105876 167 34
0.099834003 -0.087216869 0.21420766 0.0042342264 152 31
0.10117523 -0.087445498 0.21510181 0.0047828034 142 29
0.10221671 -0.087412991 0.21537408 0.004309508 149 30
0.10328426 -0.087403201 0.21572146 0.0045665232 140 28
0.10363823 -0.086796023 0.21461035 0.004752113 130 26
0.10452592 -0.086643673 0.21463852 0.0047183414 127 25
0.10490182 -0.086074457 0.21364793 0.0048868363 122 24
0.10614687 -0.086222686 0.21445277 0.005033609 126 25
0.10747142 -0.086431891 0.21542712 0.0053604981 112 22
0.10889615 -0.086716771 0.21660775 0.0055137314 108 22
nan nan nan 0 108 22
nan nan nan 0 100 20
nan nan nan 0 89 18
nan nan nan 0 131 26
nan nan nan 0 136 27
nan nan nan 0 132 26
nan nan nan 0 149 30
nan nan nan 0 161 32
nan nan nan 0 136 27
-0.10835469 -0.077210627 0.19913851 0.0049140132 140 28
-0.10840824 -0.077942982 0.20085479 0.0043368125 144 29
-0.10813203 -0.078449413 0.20186356 0.0041849143 151 30
-0.1077825 -0.078911394 0.20267259 0.0046569952 151 30
-0.10958625 -0.080972977 0.20752619 0.0045213867 151 30
-0.10839555 -0.080839776 0.20671588 0.004598069 137 28
-0.10605194 -0.079836167 0.20367409 0.0047946619 143 29
-0.10561794 -0.08026468 0.20428734 0.0044104378 142 29
-0.10603099 -0.081351325 0.20657137 0.0046111559 146 29
-0.10558435 -0.08179304 0.20721786 0.0040746606 161 32
-0.10443776 -0.081695855 0.20650896 0.0043263887 166 33
-0.1032481 -0.081562713 0.20572412 0.0034706378 203 41
-0.10247026 -0.081755497 0.20577583 0.0041455408 190 38
-0.10293478 -0.082953364 0.2083659 0.0037234616 191 39
-0.10365028 -0.084379919 0.21153387 0.0038467108 196 40
-0.10254045 -0.08433456 0.21102266 0.0035167392 190 38
-0.10235643 -0.085057609 0.21244924 0.0038119438 169 34
-0.1016295 -0.085339941 0.21278942 0.0039077937 167 34
-0.1007161 -0.085470021 0.21276775 0.0039107963 169 34
-0.1002564 -0.085992031 0.21373932 0.0041092401 186 38
-0.1001996 -0.086874679 0.21562286 0.0041237962 169 34
-0.099897005 -0.087561235 0.21703571 0.0037817021 172 35
-0.099667706 -0.088327952 0.21866482 0.0035992702 214 43
-0.09928181 -0.088971496 0.22000779 0.0031023694 221 45
-0.098536499 -0.089303896 0.22060221 0.0026788891 267 54
-0.097883239 -0.089728296 0.22144617 0.0030221322 237 48
-0.096616104 -0.089593269 0.22093339 0.0032795744 234 47
-0.095327996 -0.089435413 0.22038969 0.0030580028 260 53
-0.094820239 -0.090014599 0.22168691 0.0030364676 272 55
-0.094310798 -0.090606086 0.22303842 0.00312458 248 50
-0.09377411 -0.091185465 0.22438483 0.0026934287 271 55
-0.092862405 -0.091409937 0.22488332 0.0030438518 251 51
-0.091810085 -0.091499858 0.22507681 0.0027898513 263 53
-0.090826899 -0.091661826 0.22547346 0.0027734544 289 59
-0.089522593 -0.091499709 0.22509873 0.0025051851 297 60
-0.088416867 -0.091539003 0.22524485 0.0026826118 291 59
-0.087448783 -0.091723688 0.22577389 0.0028356803 268 54
-0.086396761 -0.09182407 0.22612008 0.0026687083 285 58
-0.084936403 -0.091487326 0.22541317 0.0026169149 282 57
-0.083850123 -0.091549821 0.22571243 0.0026170523 300 61
-0.083134063 -0.092023857 0.2270491 0.0025311103 295 60
-0.082481846 -0.092582852 0.2286184 0.0025032766 302 61
-0.081320331 -0.092577957 0.22881633 0.0027351123 286 58
-0.080014348 -0.092406072 0.22861972 0.0023631037 324 66
-0.079063818 -0.092645667 0.22945879 0.0025526807 303 61
-0.07797645 -0.092729665 0.22992934 0.0024902392 304 62
-0.076619744 -0.09249106 0.22961411 0.0025719646 336 68
-0.075696208 -0.092776053 0.23061211 0.0024505914 337 68
-0.073937364 -0.092030197 0.22905803 0.0021898411 364 74
-0.073013633 -0.092316672 0.23008208 0.0023799315 352 71
-0.071781747 -0.092216469 0.23015188 0.002409976 363 74
-0.070177548 -0.091626875 0.22900528 0.0022625194 350 71
-0.069609433 -0.092392929 0.23125368 0.0023333302 327 66
-0.068593249 -0.092580073 0.23206134 0.0026431971 278 56
-0.067451924 -0.092601851 0.2324589 0.0032550285 228 46
-0.065870561 -0.092009716 0.2313156 0.003502667 219 44
-0.064381033 -0.091527075 0.23044492 0.003220798 214 43
-0.062801227 -0.090896338 0.22919743 0.003201484 212 43
-0.061702926 -0.090952098 0.22967814 0.0030947239 228 46
-0.060610659 -0.091019012 0.23018593 0.003329085 246 50
-0.059487749 -0.091041595 0.23057963 0.0033815955 229 46
-0.05843677 -0.0911773 0.23125729 0.0031791329 233 47
-0.057062455 -0.090803862 0.23063909 0.0031730526 216 44
-0.055668991 -0.090384178 0.22989625 0.0037189932 209 42
-0.054755479 -0.090742506 0.23112734 0.0039558504 193 39
-0.054206822 -0.091733426 0.23396902 0.0035549616 189 38
-0.052900646 -0.091457523 0.23357646 0.0036487698 188 38
-0.053247549 -0.094090506 0.24061473 0.0036717206 180 36
-0.05182318 -0.09364181 0.23977309 0.0039109383 169 34
-0.050998867 -0.094281711 0.24171254 0.0037189629 178 36
-0.049366727 -0.093423136 0.23980266 0.003232867 237 48
-0.048054896 -0.093143791 0.23936883 0.0025337308 350 71
-0.046778444 -0.092920855 0.23907112 0.0022247075 389 79
-0.045686979 -0.093063392 0.23970601 0.0021581447 393 80
-0.044359349 -0.092719734 0.2390805 0.0021643019 386 78
-0.043155298 -0.092622876 0.23908257 0.002162932 389 79
-0.042041004 -0.092718646 0.23957425 0.0020331596 408 83
-0.041031763 -0.093058079 0.24068899 0.002017102 419 85
-0.04002396 -0.093420684 0.24185772 0.0021651718 416 85
-0.038880594 -0.093479149 0.24223246 0.0022326126 375 76
-0.03774149 -0.093551807 0.24263658 0.0020712081 391 79
-0.036539692 -0.093468726 0.2426291 0.0023567348 373 76
-0.035369992 -0.093464978 0.24281977 0.0021347627 401 82
-0.034096215 -0.093176551 0.24226275 0.0020065166 413 84
-0.032698326 -0.092516601 0.24073032 0.0020810103 408 83
-0.031416684 -0.092149198 0.23994981 0.0020725795 405 82
-0.030491233 -0.092838347 0.24191375 0.0021182091 400 81
-0.029466992 -0.093269333 0.2431998 0.0020269239 410 83
-0.028421106 -0.093664497 0.24438672 0.0020969606 397 81
-0.027227459 -0.09358573 0.2443305 0.0021533794 414 84
-0.026045127 -0.093540534 0.24435465 0.0021679217 383 78
-0.0247974 -0.093245186 0.24371794 0.0020087848 408 83
-0.023589177 -0.093076572 0.24340491 0.002104158 393 80
-0.022350412 -0.092763714 0.24270737 0.0021267894 397 81
-0.021120384 -0.092454843 0.24201278 0.0022405158 385 78
-0.019951917 -0.092395313 0.24196388 0.0021994074 408 83
-0.018803591 -0.092427462 0.24214862 0.0020508284 430 87
-0.017612269 -0.092238665 0.24174789 0.0018937937 459 93
-0.016443377 -0.092149094 0.24160068 0.0020803474 408 83
-0.015342633 -0.092456698 0.24248876 0.0021203943 441 90
-0.014234276 -0.092764802 0.24337247 0.0019888261 419 85
-0.013108896 -0.093006797 0.24407697 0.0019410062 436 89
-0.011967372 -0.093170181 0.24456939 0.0018675906 464 94
-0.010772805 -0.092911303 0.24394733 0.0018678273 457 93
-0.0095899487 -0.092703104 0.24345189 0.0019242377 468 95
-0.0084141912 -0.092515714 0.24300507 0.0019551264 479 97
-0.0072502457 -0.092419185 0.24279082 0.0018852941 498 101
-0.0060956143 -0.092427284 0.24284558 0.0019359214 453 92
-0.004947878 -0.092568181 0.24324343 0.0018665197 468 95
-0.003787521 -0.092486896 0.24305165 0.0019610911 461 94
-0.0026459321 -0.092993818 0.24439994 0.0018513595 474 96
-0.0014837425 -0.09300378 0.24443641 0.0018671663 460 94
-0.0003191428 -0.092388161 0.24282293 0.0017726116 498 101
0.00083766429 -0.092612475 0.24341118 0.0017684272 501 102
0.0019931027 -0.092512973 0.24314259 0.0017465214 511 104
0.0031371925 -0.092153177 0.24218424 0.0017052341 522 106
0.0042845248 -0.092056312 0.24191108 0.0017135169 525 107
0.0054410743 -0.092156552 0.24215019 0.0017802513 501 102
0.00662443 -0.092596479 0.24327585 0.001725998 539 110
0.0077870958 -0.092659354 0.24340484 0.0016338411 567 115
0.0089370692 -0.092574477 0.24313988 0.0016974527 529 108
0.010088312 -0.092520691 0.24295074 0.0016934954 534 109
0.011237607 -0.092461944 0.24274264 0.00173284 529 108
0.01237046 -0.092291482 0.24223538 0.0017505558 511 104
0.013545654 -0.092439055 0.24255686 0.001806904 524 107
0.014742547 -0.092699878 0.24316905 0.0019021434 504 103
0.015901584 -0.092701986 0.24309625 0.0017587453 559 114
0.017095687 -0.092894353 0.24351597 0.0017085596 528 107
0.018206753 -0.092639752 0.24275768 0.0017315792 574 117
0.019341597 -0.092529334 0.24237128 0.0017738659 545 111
0.020462021 -0.092366293 0.24184087 0.001652909 554 113
0.021644957 -0.09248779 0.24204902 0.0018026297 516 105
0.022669347 -0.091953836 0.24053574 0.0017493408 546 111
0.02381593 -0.091943152 0.24038529 0.0017625352 541 110
0.024951186 -0.091891743 0.2401218 0.0017937688 541 110
0.026134202 -0.092013001 0.24030258 0.0018186987 519 106
0.027245324 -0.091881588 0.23981668 0.0016801013 542 110
0.028372409 -0.091812477 0.23948672 0.0018191026 528 107
0.029535111 -0.091859497 0.23945275 0.0016998188 544 111
0.030773597 -0.092129886 0.23999335 0.0017153897 528 107
0.032048386 -0.092485525 0.24074771 0.0018842861 512 104
0.033098314 -0.092190087 0.23979986 0.0018140769 480 98
0.034149427 -0.091917731 0.2389058 0.001775529 521 106
0.035283856 -0.091880046 0.23861495 0.0017666632 501 102
0.036765434 -0.092720225 0.24059476 0.0019016071 482 98
0.037825234 -0.092477866 0.2397567 0.0017071603 528 107
0.03915561 -0.092891805 0.24061216 0.0020366285 444 90
0.040311836 -0.092880629 0.24035791 0.0020952267 430 87
0.041396651 -0.09271016 0.23968415 0.0020033394 416 85
0.042526301 -0.092646651 0.2392799 0.0020580201 401 82
0.043696493 -0.092672482 0.23909888 0.0020326423 410 83
0.044575337 -0.092095055 0.23735531 0.0020988553 425 86
0.045892455 -0.092429377 0.23795477 0.0020520838 422 86
0.047168527 -0.092666663 0.23829527 0.0020417538 404 82
0.048272587 -0.092562743 0.2377506 0.0020331708 424 86
0.049246252 -0.092219494 0.23658539 0.0023249502 398 81
0.05040592 -0.092232287 0.23632756 0.0022477973 406 83
0.051642064 -0.092381343 0.2364115 0.0020747776 398 81
0.052862991 -0.09249723 0.23640306 0.0021272514 386 78
0.053895675 -0.092285842 0.23555222 0.0020461031 409 83
0.054979529 -0.092169076 0.23493803 0.0019626981 428 87
0.056072254 -0.092071682 0.23436838 0.0020609209 414 84
0.057712052 -0.092858456 0.23604175 0.0020896727 384 78
0.058496032 -0.092264324 0.23419963 0.0020919319 384 78
0.059325662 -0.09176378 0.23259489 0.002123588 382 78
0.060151733 -0.091276832 0.23102479 0.0021168569 427 87
0.061430853 -0.091482684 0.23120645 0.0019945253 430 87
0.062593095 -0.091510147 0.23093441 0.0020905221 403 82
0.063953742 -0.091821477 0.23137634 0.0020961189 388 79
0.06528803 -0.092084669 0.23169449 0.0020813704 390 79
0.066594057 -0.092299551 0.23189005 0.0021480136 378 77
0.06747403 -0.091926657 0.23061132 0.0023251178 368 75
0.068923093 -0.092328608 0.23127919 0.0022282621 354 72
0.069988653 -0.092212044 0.23065129 0.0023293386 357 73
0.071006291 -0.092037149 0.22988392 0.002238316 377 77
0.072241798 -0.092145696 0.2298314 0.0023061696 360 73
0.073941238 -0.09283334 0.23122865 0.0023143878 366 74
0.075097822 -0.092828698 0.23090878 0.002437908 322 65
0.075990915 -0.092503436 0.22980338 0.0022249648 357 73
0.077611856 -0.093060657 0.23090205 0.0023584764 324 66
0.078472182 -0.092702888 0.22974364 0.0026286629 327 66
0.079336308 -0.09235993 0.22863925 0.0025383602 305 62
0.080104306 -0.091916524 0.22730482 0.002679622 301 61
0.080996916 -0.091626607 0.22636963 0.002674507 304 62
0.082795039 -0.092354864 0.2279681 0.0024873535 305 62
0.08384262 -0.092237398 0.22749804 0.0025734962 290 59
0.0849545 -0.092192873 0.22722961 0.0027792729 284 58
0.085930295 -0.092003867 0.22662793 0.0027674141 278 56
0.086775601 -0.091681972 0.22572288 0.0026563751 277 56
0.088232577 -0.092006296 0.22643296 0.0032525035 233 47
0.088778548 -0.091384538 0.22483958 0.0029637937 240 49
0.089301564 -0.090755239 0.22325343 0.0029450543 239 48
0.090448856 -0.090768196 0.22327292 0.0028695418 248 50
0.091815293 -0.090998039 0.22385155 0.003221483 214 43
0.092899904 -0.090946361 0.22376363 0.0031855446 215 43
0.093414776 -0.090344913 0.22234862 0.0032349101 208 42
0.094539821 -0.090340912 0.22242936 0.0033197876 211 43
0.095869631 -0.090530358 0.22301246 0.003317392 203 41
0.096102253 -0.089691378 0.22108661 0.0037082587 180 36
0.09704484 -0.089526728 0.22084641 0.0036598186 181 37
0.097792029 -0.08918763 0.22019967 0.0040192078 190 38
0.099147841 -0.08940497 0.22095083 0.00374013 191 39
0.099971414 -0.089142896 0.22054088 0.003902979 184 37
0.0988442 -0.087166272 0.21590598 0.0036803423 180 36
0.099614136 -0.086887538 0.21549238 0.0041138818 174 35
0.10066242 -0.086854964 0.21571007 0.0041375472 167 34
0.10193274 -0.087012634 0.21642192 0.0040233624 159 32
0.10264205 -0.086693138 0.21596703 0.0041655954 159 32
0.10360681 -0.086593807 0.2160791 0.0049869753 145 29
0.10445278 -0.086398281 0.21596932 0.0052163359 136 27
0.10474205 -0.085750997 0.21474542 0.0049930061 131 26
0.10413051 -0.084386811 0.21173479 0.0048306058 124 25
0.10488588 -0.084146619 0.21155392 0.0048783221 126 25
0.10650911 -0.084600545 0.21313587 0.0053384593 115 23
0.10763159 -0.084651694 0.21372166 0.005172139 119 24
nan nan nan 0 105 21
nan nan nan 0 104 21
nan nan nan 0 107 21
nan nan nan 0 149 30
-0.11193837 -0.075409085 0.19519837 0.0045177494 138 28
-0.11165444 -0.075864702 0.19723248 0.0054283179 132 26
-0.1109362 -0.076030552 0.19823901 0.0042199376 151 30
nan nan nan 0 144 29
-0.10870016 -0.075813428 0.19803016 0.0041136518 150 30
-0.10750877 -0.075650319 0.19747765 0.0041640783 151 30
nan nan nan 0 152 31
-0.10688662 -0.076576605 0.19927476 0.003990707 169 34
-0.10732927 -0.077597395 0.20151125 0.0046392847 153 31
-0.10916706 -0.079655021 0.20638935 0.0040786187 157 32
-0.10812762 -0.079632029 0.20584829 0.0046386477 146 29
-0.10680205 -0.079395913 0.20475353 0.0041872794 162 33
-0.10604352 -0.079580814 0.20474815 0.0033308123 202 41
-0.10609525 -0.080383196 0.20633376 0.0037006557 197 40
-0.10597552 -0.081069931 0.20762515 0.0034546107 195 39
-0.10618533 -0.082024664 0.20960698 0.0035987047 187 38
-0.10357302 -0.080796719 0.20602755 0.0035778212 180 36
-0.10470215 -0.082492076 0.20991585 0.0041273534 156 31
-0.10631126 -0.084603548 0.21486032 0.0040022056 161 32
-0.10462555 -0.084109269 0.21319674 0.0039572055 162 33
-0.10383251 -0.084329829 0.21336493 0.0037650557 182 37
-0.10332818 -0.084791884 0.21416023 0.004193279 169 34
-0.10292365 -0.085346393 0.21520448 0.0038579328 170 34
-0.10213278 -0.085588917 0.21547922 0.0035954905 188 38
-0.10142862 -0.085910082 0.21597096 0.0033927436 199 40
-0.10130334 -0.086733818 0.21774393 0.0033322556 204 41
-0.10079079 -0.087240413 0.21873881 0.0033217433 216 44
-0.1002087 -0.087697364 0.21962953 0.003378141 228 46
-0.099565104 -0.088110134 0.22043094 0.0029712771 230 47
-0.09924338 -0.088820316 0.22199818 0.0027526726 263 53
-0.098730877 -0.089374073 0.22319673 0.0031783674 254 51
-0.097737379 -0.089500211 0.22335161 0.0029700764 257 52
-0.096700557 -0.089589164 0.22343931 0.0031108144 257 52
-0.095392309 -0.08942578 0.22292405 0.0026344326 279 57
-0.094610296 -0.089757726 0.22366986 0.0028985206 245 50
-0.093854256 -0.09012267 0.22452395 0.0027569442 270 55
-0.093014836 -0.090415552 0.2252249 0.0029166352 245 50
-0.092102624 -0.090644091 0.22579217 0.0030430309 252 51
-0.090874173 -0.090563245 0.22561525 0.0025872663 293 59
-0.090409271 -0.091250971 0.22737956 0.0025462939 289 59
-0.088752232 -0.090737708 0.22617702 0.0025851089 280 57
-0.087761253 -0.090900861 0.22668546 0.0026732595 297 60
-0.086213045 -0.090483539 0.22577037 0.0028477607 281 57
-0.084961891 -0.090370916 0.22563833 0.0025363739 294 60
-0.083920419 -0.090481319 0.22608557 0.0023708888 321 65
-0.082929082 -0.090649568 0.22669944 0.0026651355 313 64
-0.082108021 -0.091011278 0.22781864 0.0023943761 336 68
-0.080595359 -0.090605795 0.22703636 0.0023595765 343 70
-0.079773881 -0.090976834 0.22821753 0.0023729934 321 65
-0.0789745 -0.091384329 0.22950885 0.0023352234 328 67
-0.077889219 -0.09146817 0.23000371 0.0022689963 347 70
-0.076776579 -0.091521949 0.23043698 0.0022810178 342 69
-0.075342067 -0.091187812 0.22990464 0.0022558111 347 70
-0.074372396 -0.091414616 0.23079672 0.002311782 340 69
-0.073106959 -0.09127932 0.23078404 0.002272933 348 71
-0.071296848 -0.090448685 0.22901736 0.0021336814 375 76
-0.070313662 -0.090657115 0.22988546 0.0023702756 324 66
-0.068867624 -0.090265788 0.2292369 0.0025000479 300 61
-0.068751603 -0.091633968 0.23306403 0.0029458259 241 49
-0.06730587 -0.091246396 0.23243172 0.0031576876 218 44
-0.06565702 -0.090565123 0.23104838 0.0032650384 237 48
-0.063839108 -0.089622267 0.22899158 0.0029290088 254 51
-0.062496729 -0.089324996 0.22857869 0.0028794629 246 50
-0.061232593 -0.089130647 0.22842561 0.0028106542 257 52
-0.060015779 -0.088999189 0.22842996 0.0027668215 261 53
-0.059074637 -0.089279316 0.22948813 0.0032356291 244 49
-0.057678841 -0.08886987 0.22876935 0.0027865346 258 52
-0.056313839 -0.088492498 0.2281259 0.0029004877 268 54
-0.055361576 -0.088761568 0.22914349 0.0029081793 247 50
-0.054370474 -0.088978238 0.23002216 0.0033556984 219 44
-0.053510234 -0.08942274 0.23148631 0.003289701 215 43
-0.053311795 -0.091016322 0.23592596 0.0036836404 214 43
-0.052391008 -0.091419823 0.23728096 0.0037933006 202 41
-0.051278643 -0.091499709 0.23779073 0.0037579099 195 39
-0.050443262 -0.09208896 0.2396193 0.0039533614 169 34
-0.049811028 -0.093085721 0.2425058 0.0037799589 187 38
-0.048162192 -0.092184946 0.24044167 0.0028437227 282 57
-0.046855453 -0.091910496 0.23999995 0.002245015 355 72
-0.045567714 -0.091660269 0.23961222 0.00205717 398 81
-0.044299845 -0.091438003 0.23928851 0.0020103264 416 85
-0.043122552 -0.091395751 0.23942737 0.0020522699 400 81
-0.042026684 -0.091528542 0.24001725 0.0021302111 437 89
-0.040955827 -0.091724858 0.24076678 0.0019059008 453 92
-0.03993224 -0.092041589 0.24182591 0.0020250345 411 84
-0.038789041 -0.092093356 0.24218202 0.0021817125 375 76
-0.037654072 -0.092168495 0.24259214 0.0019852682 423 86
-0.03645996 -0.092099041 0.24261402 0.0021066833 384 78
-0.035282258 -0.092067808 0.24272878 0.0021845368 408 83
-0.033973183 -0.091679931 0.24189481 0.0019642157 435 88
-0.03266114 -0.091256328 0.2409576 0.0018913781 464 94
-0.031402137 -0.09095528 0.24033521 0.0020649203 460 94
-0.030271122 -0.091016136 0.24066141 0.0018502215 471 96
-0.029270496 -0.091489367 0.24207184 0.0020165781 474 96
-0.028135637 -0.091564745 0.24242344 0.0017549811 510 104
-0.02708281 -0.091925018 0.24352303 0.0019586717 436 89
-0.025853429 -0.091691487 0.24304283 0.001976918 459 93
-0.024747008 -0.091892585 0.24370782 0.0019042244 449 91
-0.023540163 -0.091722205 0.24338092 0.0018971256 451 92
-0.022313353 -0.091452345 0.24278283 0.0018813986 457 93
-0.021103811 -0.091227591 0.24229728 0.0018051234 480 98
-0.020038113 -0.091634631 0.24348354 0.0020421541 458 93
-0.018891411 -0.091698475 0.243752 0.0020077517 411 84
-0.017690854 -0.091492146 0.24329589 0.0019107892 464 94
-0.016371004 -0.090596788 0.24100021 0.0017684802 508 103
-0.015233801 -0.090653434 0.24123007 0.0017903903 498 101
-0.014205017 -0.09141703 0.24333586 0.0017710507 499 102
-0.013103344 -0.091805384 0.24443762 0.001823234 513 104
-0.011895486 -0.091452956 0.2435611 0.0017370207 576 117
-0.010738134 -0.091454715 0.24362174 0.0017261733 548 112
-0.0095733665 -0.091386102 0.24348895 0.0017188013 533 108
-0.008399928 -0.091204464 0.24304913 0.0017408823 549 112
-0.007256316 -0.09134043 0.24344993 0.001687206 547 111
-0.0061054244 -0.091418914 0.24369182 0.0017845674 530 108
-0.0049305321 -0.091090702 0.24284376 0.0018135345 547 111
-0.0037573588 -0.090603575 0.24156629 0.00169025 603 123
-0.0026108413 -0.090613596 0.24160852 0.0014956244 659 134
-0.0014745444 -0.091271959 0.24337399 0.0015529025 630 128
-0.00031804098 -0.090918399 0.24243559 0.0015130691 685 140
0.00083326001 -0.090974048 0.24258271 0.0015854279 593 121
0.0019889113 -0.091164514 0.24308372 0.0015633835 610 124
0.0031418172 -0.091135487 0.2429938 0.0014940589 653 133
0.0042932704 -0.091091231 0.24285768 0.0015223396 674 137
0.0054425006 -0.091028526 0.24266672 0.0015021561 650 132
0.0065859263 -0.090907604 0.24231499 0.0014447831 716 146
0.0077732266 -0.091338217 0.24342754 0.0014350159 747 152
0.0089167571 -0.091209598 0.2430438 0.001454527 712 145
0.010061977 -0.091125757 0.24277368 0.0014625086 678 138
0.011216406 -0.091133974 0.2427431 0.0015526778 615 125
0.012377979 -0.091193326 0.24284279 0.0014694445 676 138
0.013275851 -0.089465454 0.23817848 0.0013800035 740 151
0.014646368 -0.090944 0.2420446 0.0013668028 756 154
0.015921434 -0.091657557 0.24386704 0.0014195734 712 145
0.017079506 -0.091646433 0.24375461 0.0015105674 702 143
0.018182728 -0.091361105 0.24290699 0.0014393199 737 150
0.019240303 -0.090894274 0.24157125 0.0014365478 741 151
0.020424735 -0.091045588 0.24187244 0.0013647616 756 154
0.021538276 -0.090881608 0.24132963 0.0014902522 715 146
0.022701435 -0.090933017 0.24135248 0.0015197075 690 141
0.023711577 -0.090396114 0.23980793 0.0014886167 693 141
0.024926608 -0.090653785 0.240365 0.0014262304 728 148
0.026108684 -0.090774193 0.24055098 0.001412297 710 145
0.027235765 -0.090701312 0.24021779 0.0014883237 722 147
0.028306199 -0.090453319 0.2394145 0.0013896856 743 151
0.029465314 -0.090496957 0.2393765 0.0015128234 656 134
0.030800954 -0.091059208 0.24070218 0.0015858338 594 121
0.031957008 -0.091069132 0.24055967 0.0015270191 638 130
0.033114627 -0.091082655 0.24041939 0.001475877 663 135
0.03415034 -0.090771258 0.23941468 0.0014202447 703 143
0.035315033 -0.090811796 0.23933139 0.0016407783 612 125
0.036426708 -0.090717733 0.23888603 0.0016140676 643 131
0.037750565 -0.091141701 0.2397965 0.0016163681 625 127
0.039137285 -0.091687799 0.24101847 0.0016922557 537 109
0.040237948 -0.091551594 0.24043816 0.0018375793 521 106
0.041295592 -0.091327868 0.23962115 0.0017143654 524 107
0.042511318 -0.091456413 0.2397209 0.0018221628 487 99
0.043359809 -0.09080904 0.23778048 0.0018169732 481 98
0.044456538 -0.090701558 0.23724806 0.001733769 522 106
0.046060238 -0.091607794 0.23935725 0.0016878317 535 109
0.047165975 -0.091503456 0.23881602 0.0020569386 442 90
0.048042454 -0.090970024 0.2371491 0.001864268 463 94
0.049186613 -0.090956554 0.2368318 0.0018753657 467 95
0.050360151 -0.090996765 0.23664689 0.002017007 461 94
0.051451549 -0.09089011 0.23607297 0.0018649098 459 93
0.052680217 -0.091025278 0.23612012 0.0019444106 434 88
0.05383924 -0.091036908 0.23583946 0.0019523156 428 87
0.055019923 -0.091083907 0.23564376 0.0022354971 399 81
0.05644162 -0.091519788 0.23644631 0.0023194116 372 76
0.057442237 -0.091269083 0.23546845 0.0020882024 391 79
0.058439523 -0.091023073 0.23449922 0.0022731165 380 77
0.059538156 -0.090941384 0.23394966 0.0020506796 394 80
0.060448721 -0.090580977 0.2326805 0.0019406037 436 89
0.061316665 -0.090171307 0.23128408 0.0020687256 394 80
0.062514417 -0.09025275 0.23114572 0.001994337 423 86
0.063894033 -0.090589128 0.23165646 0.0020103692 411 84
0.065246731 -0.090876147 0.23203732 0.0022299935 403 82
0.066595234 -0.09114749 0.23237555 0.0022091721 408 83
0.067731895 -0.091124579 0.23196332 0.002019102 405 82
0.068946443 -0.091205463 0.23181684 0.0019916103 416 85
0.070200339 -0.091334887 0.23179586 0.002137786 379 77
0.071212217 -0.091150329 0.23098239 0.0021564611 369 75
0.072331913 -0.091107458 0.23053429 0.002165019 387 79
0.073354475 -0.09094552 0.22979254 0.0020865104 384 78
0.075011492 -0.091563031 0.23102674 0.002219954 356 72
0.075744562 -0.091051079 0.22942056 0.0022260963 350 71
0.076854311 -0.091000497 0.22898996 0.00239852 335 68
0.078263283 -0.09130048 0.22945333 0.0022990652 332 67
0.07953044 -0.091428682 0.22949789 0.0025438033 316 64
0.080611341 -0.091342181 0.229019 0.0023320045 330 67
0.081511348 -0.091056034 0.22805768 0.0024966565 329 67
0.082457639 -0.090828843 0.22726375 0.0024457397 329 67
0.083696894 -0.0909262 0.22730187 0.0024364034 313 64
0.0844649 -0.090515867 0.22609237 0.002364811 325 66
0.085522629 -0.090422861 0.2256985 0.0023878035 317 64
0.086896777 -0.09066245 0.22615753 0.0027382395 264 53
0.088169575 -0.090791419 0.22636405 0.0030645549 251 51
0.088851646 -0.090316601 0.22509021 0.003034512 236 48
0.08920078 -0.089519724 0.22304009 0.0030784777 251 51
0.090519518 -0.089703701 0.22345985 0.0029686736 241 49
0.091999985 -0.090041406 0.22428852 0.002975974 240 49
0.092974395 -0.089881621 0.2239044 0.0033298018 211 43
0.093731947 -0.089518592 0.2230403 0.0032193034 216 44
0.095054999 -0.08969786 0.22355385 0.0034594 219 44
0.095998429 -0.089518905 0.2232012 0.0036372186 204 41
0.096392311 -0.088837646 0.22162135 0.0033752865 198 40
0.096807778 -0.088191763 0.22015372 0.0038229874 191 39
0.098571017 -0.088774405 0.22177848 0.003604763 183 37
0.099213965 -0.088346377 0.22090374 0.0033463209 198 40
0.099913418 -0.087977618 0.22020018 0.0038693929 190 38
0.10020808 -0.087264486 0.218656 0.0036169777 187 38
0.10000924 -0.086141832 0.21610379 0.0038685913 171 34
0.10138599 -0.086385868 0.21700032 0.0037314114 182 37
0.10232263 -0.08625371 0.21697441 0.00447358 161 32
0.10281206 -0.08575134 0.21603645 0.0040251901 160 32
0.10346093 -0.08539106 0.21547402 0.0045936485 160 32
0.10438932 -0.085266553 0.21552479 0.0042880657 148 30
0.10393824 -0.084029339 0.21277654 0.0050094961 136 27
0.10401455 -0.08323925 0.21116994 0.0046990695 133 27
0.10463621 -0.08289706 0.21071213 0.0049567008 125 25
0.10553161 -0.082776375 0.2108324 0.0054104202 107 21
0.10612424 -0.082422905 0.21037374 0.0054145278 112 22
0.10615555 -0.08164461 0.20884028 0.0063916449 108 22
nan nan nan 0 108 22
nan nan nan 0 119 24
nan nan nan 0 166 33
-0.1119414 -0.074456617 0.19580376 0.004153464 151 30
-0.11131203 -0.07467474 0.19704637 0.0045877583 149 30
-0.11086155 -0.075017691 0.19833739 0.0043031182 143 29
-0.10996026 -0.07505893 0.19857675 0.0043363119 160 32
-0.10868719 -0.074844882 0.19793497 0.0042066742 170 34
-0.10808644 -0.075094119 0.198366 0.0044885208 141 28
-0.10722 -0.075161584 0.19821076 0.0038467867 169 34
-0.10720737 -0.075834215 0.19958018 0.0037734001 187 38
-0.10764588 -0.076841213 0.20178021 0.0035682875 183 37
-0.10833031 -0.078043975 0.20446058 0.0036868791 182 37
-0.10818233 -0.078663863 0.20559543 0.0033200027 202 41
-0.10868894 -0.079775892 0.20800737 0.0040569366 182 37
-0.10780828 -0.079881139 0.20779395 0.0039648898 184 37
-0.10702652 -0.080062389 0.20778744 0.0038358963 191 39
-0.10878436 -0.082165323 0.21276823 0.0038178153 164 33
-0.10720398 -0.081763349 0.21126768 0.0042179194 158 32
-0.10681472 -0.082270868 0.21213277 0.004237364 150 30
-0.10692776 -0.083179235 0.21404102 0.0042556841 151 30
-0.10706697 -0.084126472 0.21605779 0.0037638464 180 36
-0.10618675 -0.084283836 0.21605915 0.0035433625 186 38
-0.10468145 -0.083943188 0.2148042 0.0039813695 187 38
-0.10403731 -0.084293194 0.21533662 0.0036642591 208 42
-0.10409798 -0.085227586 0.21737729 0.0037605227 194 39
-0.10378005 -0.085868537 0.21868487 0.0033073556 211 43
-0.10302331 -0.086156279 0.2191117 0.0029727435 236 48
-0.10201718 -0.086239427 0.21903989 0.003224354 230 47
-0.10136807 -0.086629517 0.21976972 0.0033584503 224 45
-0.10066281 -0.086979732 0.22042054 0.0028817069 246 50
-0.099800661 -0.087200709 0.22076716 0.0029239205 235 48
-0.099739015 -0.088134043 0.22294006 0.0030077926 234 47
-0.098992616 -0.088476755 0.22364232 0.0028729781 245 50
-0.098163359 -0.088752501 0.22420079 0.0030111349 226 46
-0.097191051 -0.088903859 0.22447124 0.002905438 250 51
-0.096116766 -0.088964432 0.22453944 0.0027530838 261 53
-0.094758727 -0.088760652 0.22396778 0.002991895 265 54
-0.093949579 -0.089072332 0.22472401 0.0027447448 261 53
-0.093742333 -0.089969337 0.22698413 0.0029855729 271 55
-0.091592073 -0.089000665 0.22456434 0.0025685066 291 59
-0.090781234 -0.089325503 0.22543488 0.0024873668 302 61
-0.089699775 -0.089388929 0.22567227 0.0023713468 325 66
-0.089670129 -0.090515748 0.22862145 0.0026380981 288 58
-0.087518111 -0.089501649 0.22618832 0.0028149046 288 58
-0.085990123 -0.089107245 0.22534339 0.0025665599 308 62
-0.085112557 -0.089385279 0.22622201 0.0023859038 322 65
-0.084184878 -0.089617588 0.22700799 0.0023709789 323 66
-0.083030432 -0.08961156 0.22721174 0.0022845499 344 70
-0.081561759 -0.089261472 0.22656184 0.002292258 339 69
-0.080563992 -0.089424126 0.22723107 0.0022482222 353 72
-0.079733737 -0.089780092 0.22840986 0.00245018 330 67
-0.079081252 -0.090349592 0.23015019 0.0023958364 319 65
-0.077945508 -0.090375692 0.23052216 0.0023897334 352 71
-0.076575637 -0.090127014 0.23020479 0.0023519218 325 66
-0.074870028 -0.089469522 0.22885089 0.002347871 348 71
-0.073594891 -0.089313969 0.22878702 0.0023690811 374 76
-0.072782218 -0.089723624 0.23017968 0.0023729042 366 74
-0.071792118 -0.089924194 0.23104466 0.0022181529 363 74
-0.069989473 -0.089096934 0.22927123 0.0025046479 299 61
-0.068989791 -0.089281365 0.23010223 0.0027726211 257 52
-0.068331838 -0.08992172 0.23211394 0.0035134952 218 44
-0.066818625 -0.089439251 0.23122917 0.0033263722 236 48
-0.064972743 -0.088486873 0.22912386 0.0029610733 239 48
-0.063604757 -0.088163048 0.22864009 0.0027669584 262 53
-0.061882541 -0.087327637 0.22682315 0.0028225088 281 57
-0.060904976 -0.087531641 0.22770087 0.0025771188 291 59
-0.059781287 -0.087529354 0.22803934 0.0025497349 298 60
-0.058395948 -0.087136552 0.22735496 0.0025215079 295 60
-0.057101469 -0.086866662 0.22698408 0.0026849746 310 63
-0.056005679 -0.086894281 0.22738466 0.0024969536 301 61
-0.054991547 -0.087052315 0.22812158 0.0026507122 279 57
-0.054125421 -0.08745604 0.22949845 0.0028053022 257 52
-0.05314374 -0.087686159 0.23041573 0.0029285129 242 49
-0.0531458 -0.089584477 0.23571736 0.0031446957 230 47
-0.052110691 -0.089779735 0.23653808 0.0034147087 220 44
-0.050869491 -0.089620724 0.23641831 0.0037308324 209 42
-0.04996489 -0.090061091 0.23787309 0.0035640325 183 37
-0.049914174 -0.092097804 0.24354449 0.0037478097 178 36
-0.048729312 -0.092089877 0.24380755 0.003017416 245 50
-0.047343045 -0.091691479 0.24302764 0.002231397 353 72
-0.045557871 -0.090480536 0.24008135 0.0022338298 396 80
-0.044288069 -0.090256624 0.23974198 0.0020607945 400 81
-0.043157 -0.090311006 0.24013343 0.0020485262 449 91
-0.042012136 -0.090338737 0.24044631 0.0020673373 447 91
-0.040929757 -0.090506203 0.24112374 0.0021215393 417 85
-0.039822303 -0.090626381 0.24166806 0.0020919915 431 88
-0.038663402 -0.090633176 0.24190246 0.0020110954 415 84
-0.037532497 -0.090708055 0.24231108 0.0019955146 436 89
-0.036057148 -0.089928664 0.24042842 0.0019016793 450 92
-0.035144225 -0.090546817 0.24227421 0.0019071876 442 90
-0.03386033 -0.090218797 0.24158148 0.0017884163 494 101
-0.032519113 -0.089709446 0.24039413 0.00181126 485 99
-0.031370778 -0.089714333 0.24057651 0.0018664713 494 101
-0.030278279 -0.089885354 0.24119757 0.001851359 524 107
-0.029172819 -0.09002991 0.24174106 0.0017358972 520 106
-0.028055524 -0.090148337 0.24220791 0.0018067525 547 111
-0.02681482 -0.08986339 0.24158373 0.0018258858 508 103
-0.025769198 -0.090235949 0.24272059 0.001877145 508 103
-0.024624495 -0.090280287 0.24296841 0.0016989501 536 109
-0.023426043 -0.090122215 0.24266471 0.0017456956 557 113
-0.022238219 -0.089990743 0.2424258 0.0016569999 569 116
-0.021190727 -0.090443842 0.24375558 0.0018337949 533 108
-0.019974966 -0.090189636 0.24317296 0.0016346639 568 116
-0.018859999 -0.090387262 0.24380231 0.001731172 518 105
-0.017703036 -0.090396322 0.24391703 0.0017720719 542 110
-0.016444284 -0.089850463 0.24252781 0.0015868173 601 122
-0.015207375 -0.08935073 0.24125612 0.0016226155 606 123
-0.014044311 -0.089238785 0.24102513 0.0016277417 613 125
-0.012923763 -0.089401096 0.24152908 0.0015997717 631 129
-0.011820025 -0.089722589 0.24245763 0.0015123778 638 130
-0.010671278 -0.089734949 0.24254522 0.0014278605 709 144
-0.0095179034 -0.089706652 0.24251726 0.0015242032 643 131
-0.008379628 -0.08983244 0.24290033 0.0013442652 777 158
-0.0072316006 -0.089877129 0.24305844 0.001473392 722 147
-0.0060879113 -0.090002865 0.24343035 0.0014076965 717 146
-0.0048978268 -0.089341134 0.24166664 0.0012978027 864 176
-0.0037405298 -0.08905609 0.24091615 0.0013114206 809 165
-0.0026013013 -0.089139745 0.2411575 0.0013209519 840 171
-0.0014707769 -0.089886449 0.24318734 0.001226005 900 184
-0.00031834922 -0.089854613 0.24310546 0.0012958383 846 172
0.00083333172 -0.089830272 0.24303839 0.0013252909 795 162
0.0019860191 -0.089879721 0.24316548 0.001383237 827 169
0.0031456794 -0.090092562 0.24372913 0.001226417 921 188
0.0043019699 -0.090120494 0.24378696 0.001259474 881 180
0.0054531032 -0.090051435 0.2435769 0.0013486756 843 172
0.0065909075 -0.089824848 0.24293533 0.0012490546 944 193
0.0077250293 -0.089622945 0.24235512 0.0011518174 997 203
0.0088844588 -0.089728914 0.24260187 0.0012498955 929 189
0.010009371 -0.089501932 0.24194291 0.0012334146 931 190
0.011204631 -0.089886002 0.24292995 0.0012820688 894 182
0.012290416 -0.089402094 0.24156551 0.0011706845 992 202
0.013411481 -0.089235485 0.2410531 0.0011902197 941 192
0.014442259 -0.088541538 0.23911105 0.0011458528 1070 218
0.015655858 -0.088987872 0.24024275 0.0011424398 1023 209
0.016774878 -0.088872507 0.23985179 0.0011185929 1051 214
0.018005678 -0.089326359 0.24099076 0.0010805194 1121 229
0.019035134 -0.088786788 0.23944367 0.0010571317 1226 250
0.020258835 -0.089163013 0.24036036 0.0010659401 1200 245
0.021491468 -0.089536265 0.24126197 0.0010189448 1232 251
0.022580387 -0.089303307 0.24052362 0.0010604678 1150 235
0.023760194 -0.089434929 0.24076088 0.001107398 1138 232
0.024885489 -0.08935868 0.24043199 0.0010367349 1197 244
0.026123239 -0.089675196 0.24115293 0.0010383329 1192 243
0.027260186 -0.089633562 0.24090365 0.0010948896 1093 223
0.028338511 -0.089410342 0.2401599 0.0010881982 1101 225
0.029484054 -0.089408323 0.24000379 0.0010991069 1124 229
0.030709207 -0.089638829 0.24046443 0.0011327564 1027 210
0.031895027 -0.08974202 0.24057589 0.001117208 1046 213
0.033070754 -0.089810625 0.24058712 0.0012691587 903 184
0.034308687 -0.090037867 0.24101537 0.0012415734 879 179
0.03535914 -0.08977434 0.24012257 0.0012331394 892 182
0.036540452 -0.089849167 0.24012777 0.0013398601 785 160
0.037739944 -0.089962773 0.24022853 0.0014445079 772 157
0.038882677 -0.089938335 0.23995288 0.0014137063 780 159
0.040166263 -0.090231739 0.24051683 0.001441465 695 142
0.041259702 -0.090093516 0.23992209 0.0015119787 645 131
0.04214254 -0.08951547 0.23815009 0.0015546647 618 126
0.043298509 -0.089532867 0.23795585 0.0015253755 633 129
0.044556241 -0.089754358 0.2382955 0.0016207675 605 123
0.045668341 -0.089678697 0.23783801 0.001527606 633 129
0.046649065 -0.089355133 0.23671633 0.0017107266 570 116
0.047828462 -0.089418493 0.23661271 0.0016486876 556 113
0.04897064 -0.089410938 0.23631349 0.0017340652 563 115
0.050264433 -0.089674219 0.23672168 0.001744675 516 105
0.051437996 -0.089716025 0.23653667 0.0018184164 483 98
0.052647777 -0.089817792 0.2365019 0.0018966206 468 95
0.053783372 -0.08979135 0.23612206 0.0019524974 428 87
0.055005167 -0.089906901 0.23610833 0.0019350207 438 89
0.056475531 -0.090415679 0.23711832 0.0020311098 409 83
0.057316024 -0.089915849 0.23547682 0.002007226 410 83
0.058298316 -0.08965379 0.2344549 0.0020143676 415 84
0.059463259 -0.089677341 0.23417516 0.0019537406 434 88
0.06057233 -0.089617327 0.23367237 0.001974036 424 86
0.061448168 -0.089220911 0.23228979 0.0020458426 449 91
0.062662467 -0.08932142 0.23219831 0.0020259626 404 82
0.063833676 -0.089358002 0.23193708 0.0019126619 442 90
0.06515678 -0.089602187 0.23221126 0.0019828272 416 85
0.066581585 -0.089975357 0.23281585 0.0019197578 439 89
0.067765519 -0.090015829 0.23255743 0.002154286 401 82
0.068955101 -0.09006235 0.23231485 0.0020241872 408 83
0.07002794 -0.089957349 0.23168348 0.0021831472 395 80
0.071121953 -0.089882523 0.23113339 0.0021783873 409 83
0.072050668 -0.089604504 0.23006643 0.0020628537 410 83
0.073424622 -0.089880243 0.23042682 0.0021071183 386 78
0.074354321 -0.089612037 0.22939961 0.00206152 394 80
0.075515375 -0.089626588 0.22910559 0.002337381 374 76
0.076600812 -0.089552306 0.22859462 0.0022112078 359 73
0.077908255 -0.08973591 0.228753 0.0024317619 338 69
0.079255484 -0.089959338 0.22902447 0.0023152397 344 70
0.080742866 -0.090333164 0.22969148 0.0024112244 314 64
0.081686661 -0.090096846 0.22882274 0.0023183723 332 67
0.08215262 -0.089347459 0.22667129 0.0024549905 308 62
0.083025306 -0.089054942 0.22570059 0.0025395439 302 61
0.084119111 -0.089004293 0.22536385 0.0024328474 313 64
0.085393488 -0.089143537 0.22552909 0.0024159921 316 64
0.087193415 -0.089820474 0.22707568 0.0025866583 289 59
0.08838436 -0.089860603 0.22703481 0.0027418367 264 53
0.088925034 -0.08924707 0.2253679 0.0029096862 250 51
0.089452215 -0.088635765 0.22373337 0.0031320334 250 51
0.090712123 -0.088756733 0.22397354 0.0030706932 266 54
0.092148453 -0.089045174 0.22466256 0.0034716097 223 45
0.092767455 -0.088546433 0.22339225 0.0030782321 225 46
0.093482472 -0.08815027 0.22240774 0.0033921464 226 46
0.094617292 -0.088154711 0.22246093 0.0030792318 232 47
0.095486306 -0.08791431 0.22192316 0.0030307155 235 48
0.095576145 -0.086970501 0.21963547 0.0035990819 212 43
0.096897893 -0.087156534 0.22022675 0.0033571138 198 40
0.098555662 -0.087637104 0.22158964 0.0035965326 191 39
0.099016763 -0.087054744 0.22029075 0.0034773482 202 41
0.099435858 -0.086448856 0.2189552 0.0033926652 200 40
0.10089652 -0.086751863 0.21994609 0.0040054345 172 35
0.10144939 -0.086276248 0.21898684 0.0036912658 179 36
0.10143247 -0.085331552 0.21685643 0.0039109197 169 34
0.10205501 -0.084939219 0.21614861 0.0042116013 156 31
0.10253779 -0.08444009 0.21518821 0.0040152115 159 32
0.10288124 -0.083837837 0.21398246 0.004437855 154 31
0.10319158 -0.083221346 0.21275637 0.0039851177 162 33
0.10476703 -0.083627298 0.21416353 0.004800892 151 30
0.10455112 -0.082609616 0.21194156 0.0051584118 136 27
0.10496271 -0.082103178 0.21104285 0.0048453459 133 27
0.10528115 -0.081534661 0.20999728 0.0056096828 121 24
0.10610769 -0.081366941 0.20999745 0.0052018454 121 24
0.10695636 -0.081219308 0.21006423 0.0060437042 113 23
nan nan nan 0 108 22
nan nan nan 0 108 22
-0.11189316 -0.072849251 0.19377346 0.0042139697 147 30
-0.11223923 -0.073697671 0.1968002 0.0047160918 146 29
-0.11150028 -0.073842108 0.19766736 0.0039585694 162 33
-0.11073747 -0.073973104 0.19822828 0.004233391 152 31
-0.11028996 -0.074318863 0.19913962 0.0039559659 163 33
-0.10889094 -0.074023902 0.19816303 0.0036293531 181 37
-0.10876571 -0.074597314 0.1993892 0.003636884 183 37
-0.10868658 -0.075212933 0.20064338 0.0040681507 185 37
-0.10826115 -0.075597905 0.20122848 0.0031393177 219 44
-0.10844298 -0.076417834 0.20293823 0.0041912473 168 34
-0.10825637 -0.076990888 0.20397289 0.0037092627 180 36
-0.11022878 -0.079124406 0.20912394 0.0038575963 169 34
-0.10981473 -0.079568915 0.20980071 0.0040766769 158 32
-0.10859486 -0.07943245 0.20895393 0.0050888225 149 30
-0.10776915 -0.079584427 0.20887874 0.004473832 150 30
-0.10812998 -0.080624081 0.21114111 0.004377238 142 29
-0.10872828 -0.08186283 0.21392794 0.0041136788 156 31
-0.10808983 -0.082185708 0.21432993 0.0044471356 171 34
-0.10759698 -0.08262682 0.21505423 0.0034632606 196 40
-0.1067615 -0.082811065 0.21512553 0.0038817464 186 38
-0.10619151 -0.083207078 0.21576372 0.0036891545 201 41
-0.1058873 -0.083821632 0.21698424 0.0031197215 223 45
-0.1054315 -0.084327698 0.21794006 0.0031085201 219 44
-0.10518094 -0.085010275 0.21936898 0.0032071304 217 44
-0.10449173 -0.085349053 0.21992937 0.0034949973 206 42
-0.10346592 -0.085417189 0.21981418 0.0030924925 222 45
-0.10240254 -0.085455455 0.21964569 0.0032463742 240 49
-0.10171492 -0.08581157 0.22031757 0.0031484962 223 45
-0.10076495 -0.085951805 0.22045892 0.0028403832 242 49
-0.10005207 -0.086299665 0.22115739 0.0028506806 251 51
-0.099585034 -0.086869866 0.22244999 0.002819242 252 51
-0.099049456 -0.087392673 0.2236461 0.0028399266 253 51
-0.097909331 -0.087387994 0.22351883 0.0026102802 288 58
-0.097407207 -0.087959334 0.22489187 0.0030833143 269 55
-0.096545249 -0.088215455 0.22548608 0.0025705469 290 59
-0.095514171 -0.088321321 0.2257241 0.002676185 278 56
-0.094196476 -0.088161536 0.22531113 0.0025910207 288 58
-0.093036234 -0.08814697 0.22529702 0.0025718722 290 59
-0.092073411 -0.088321425 0.22579364 0.0025048559 301 61
-0.090521656 -0.087928228 0.22486584 0.002585351 320 65
-0.0902614 -0.088795505 0.22718857 0.0025848942 311 63
-0.089126348 -0.088813491 0.22736531 0.0023826475 328 67
-0.08741346 -0.088248618 0.22607391 0.0022788323 341 69
-0.086130597 -0.088108607 0.22589357 0.0024456324 343 70
-0.085286528 -0.08841975 0.22689301 0.002318962 335 68
-0.084394686 -0.088689193 0.22780837 0.0025450347 319 65
-0.083248943 -0.088695586 0.22806908 0.0023056082 342 69
-0.081983492 -0.088572808 0.22801614 0.0022014324 357 73
-0.080714121 -0.088442244 0.22795974 0.0022534917 345 70
-0.079999343 -0.088924393 0.22949955 0.0023005556 339 69
-0.079316743 -0.089456938 0.23118728 0.0023019225 343 70
-0.078144498 -0.089444868 0.23148206 0.0023550247 360 73
-0.076662317 -0.089072317 0.23085368 0.0022057884 358 73
-0.075143516 -0.088645183 0.23009023 0.0021417618 375 76
-0.073515266 -0.088073604 0.22895595 0.0021401411 390 79
-0.072811469 -0.088609003 0.23070563 0.0022805938 367 75
-0.071716569 -0.088677987 0.23124844 0.002427262 312 63
-0.070342928 -0.088398926 0.2308865 0.0030289339 246 50
-0.06914933 -0.088340625 0.23110208 0.0030492775 234 47
-0.067719989 -0.087974101 0.23051079 0.0033012794 235 48
-0.066151455 -0.087411076 0.22940072 0.0026799296 273 55
-0.064503536 -0.086721666 0.22795285 0.0026588119 275 56
-0.062950447 -0.086137511 0.2267745 0.0025027178 302 61
-0.061851215 -0.086164482 0.2272 0.002565522 292 59
-0.06050292 -0.0858391 0.22669175 0.0023953004 321 65
-0.059288628 -0.085695177 0.22665666 0.0023874969 325 66
-0.058114521 -0.085604943 0.22675791 0.0022592605 353 72
-0.056929905 -0.085495405 0.22680204 0.0023722253 324 66
-0.055827916 -0.085508071 0.22716421 0.0024035324 317 64
-0.054723427 -0.085517347 0.22751141 0.0025041599 320 65
-0.053532839 -0.085389666 0.22748728 0.0026055318 285 58
-0.053005077 -0.086336195 0.23032123 0.0026223704 279 57
-0.052191213 -0.086847574 0.23199241 0.0031286927 258 52
-0.051809788 -0.088117026 0.23568748 0.0028134664 254 51
-0.050425444 -0.087699533 0.23486584 0.0028816438 243 49
-0.049782276 -0.088581599 0.23751828 0.0032604332 218 44
-0.049630877 -0.090401128 0.24268521 0.0036664584 178 36
-0.048886579 -0.091202714 0.24511965 0.0037074559 215 43
-0.047154751 -0.090156019 0.24257763 0.002518065 330 67
-0.045651469 -0.089504115 0.24108468 0.0020114144 425 86
-0.044327617 -0.089179143 0.24046139 0.0019868957 459 93
-0.043201372 -0.08924491 0.24088301 0.0019153912 495 101
-0.042028405 -0.089215159 0.24103877 0.0019839383 461 94
-0.040836625 -0.089142643 0.24107082 0.0018481935 470 96
-0.039668627 -0.089119337 0.24122779 0.0017916717 490 100
-0.038521357 -0.089142591 0.24150297 0.0019936645 468 95
-0.0373092 -0.089012474 0.24135463 0.0017976128 490 100
-0.036248688 -0.089247398 0.24218869 0.0018406012 472 96
-0.035008308 -0.089040361 0.24181594 0.001657599 551 112
-0.033748601 -0.088768348 0.24125823 0.0017081867 547 111
-0.032510623 -0.088536277 0.24080072 0.0016449178 560 114
-0.031379193 -0.088587992 0.24110754 0.0016283585 573 117
-0.030363865 -0.088983878 0.24234471 0.0015706158 608 124
-0.029215008 -0.089004286 0.24255301 0.0017239852 567 115
-0.027922047 -0.088569291 0.24151269 0.0016445419 620 126
-0.02682188 -0.088734724 0.24210231 0.0015506302 616 125
-0.025745505 -0.08899726 0.24295084 0.001604247 584 119
-0.024606146 -0.089056514 0.24323829 0.0015326926 683 139
-0.023364343 -0.088732548 0.24247222 0.0013814097 760 155
-0.022250991 -0.088888131 0.24300987 0.0014557278 690 141
-0.021070015 -0.088775784 0.24280877 0.0013452598 773 158
-0.019932259 -0.088843092 0.24309283 0.0013473773 776 158
-0.018737733 -0.088650078 0.24265832 0.0013099904 801 163
-0.017609417 -0.088765547 0.24306208 0.001359501 761 155
-0.016449181 -0.08872503 0.2430328 0.0013477547 821 167
-0.015196155 -0.088140205 0.24150617 0.0012147897 914 186
-0.014020687 -0.087946586 0.24104501 0.001207763 926 189
-0.012884076 -0.087983981 0.24121125 0.0011908188 945 193
-0.011766548 -0.088171661 0.24178401 0.0012078686 932 190
-0.010650777 -0.088414386 0.24250236 0.0011076728 1065 217
-0.0095259808 -0.088631779 0.24314602 0.0012049619 941 192
-0.0083652698 -0.088528864 0.24290547 0.0011009595 1131 231
-0.007225717 -0.088652737 0.24328171 0.0010563714 1159 237
-0.0060820221 -0.088763118 0.24361555 0.0010998813 1078 220
-0.0049277404 -0.088734478 0.2435625 0.0010838431 1125 230
