# .PCD v0.7 - Point Cloud Data file format
VERSION 0.7
FIELDS x y z noise intensity gray
SIZE 4 4 4 4 2 1
TYPE F F F F U U
COUNT 1 1 1 1 1 1
WIDTH 1031
HEIGHT 1
VIEWPOINT 0 0 0 1 0 0 0
POINTS 1031
DATA ascii
-0.033429552 0.23095001 0.69320279 0.0074017565 85 17
-0.03078744 0.23562573 0.70736498 0.0085668974 79 16
-0.02672974 0.2292884 0.68845129 0.0067531886 99 20
-0.022925992 0.2236869 0.67172843 0.0053931852 113 23
-0.019712701 0.22297946 0.66968709 0.0051899045 121 25
-0.016661845 0.22418945 0.673392 0.0061979853 101 21
-0.013479576 0.22378366 0.67223155 0.0051074959 120 24
-0.01031199 0.22344828 0.67127013 0.0057314099 105 21
-0.0072581773 0.22636656 0.68007129 0.0060156272 112 23
-0.0039611477 0.22032942 0.66195524 0.0050528371 133 27
-0.00085813727 0.22044353 0.66230732 0.0047844276 131 27
0.0022676941 0.22248121 0.66842663 0.0057361461 116 24
0.0054558134 0.22472003 0.67513806 0.0061494024 103 21
0.008650016 0.22547345 0.67737442 0.0062763696 106 22
0.011790988 0.22480731 0.6753335 0.0055440133 112 23
0.014915814 0.22418053 0.67339903 0.0053523574 129 26
0.018286129 0.22681777 0.68125606 0.004916857 126 26
0.021292927 0.22483218 0.67521536 0.0045313989 138 28
0.024479041 0.22500899 0.67565703 0.0047613382 129 26
0.027947638 0.22744414 0.68286604 0.0051395004 119 24
0.031057248 0.22675741 0.68068814 0.0050007631 124 25
0.034145433 0.22605689 0.67845678 0.0049381005 131 27
0.037395433 0.22645576 0.67951167 0.0054659303 113 23
0.039895374 0.22260682 0.66780931 0.0048574503 128 26
0.043144714 0.22319558 0.66940844 0.0045433599 138 28
0.045963395 0.22162776 0.66452688 0.0044858488 140 29
0.049185153 0.22207938 0.66568726 0.0051539652 139 28
0.052348886 0.22223064 0.66593277 0.004144433 155 32
0.055661965 0.22296302 0.66790444 0.0045153988 136 28
0.0587845 0.22289471 0.66746199 0.0049324459 125 25
0.061471999 0.2212674 0.66233814 0.0054213521 119 24
0.06679628 0.22883026 0.68470144 0.0064295405 108 22
nan nan nan 0 106 22
0.071143344 0.2222714 0.6644944 0.0053922785 122 25
0.073953785 0.22131267 0.66131443 0.0043146512 149 30
0.077374734 0.2221846 0.66358835 0.004312892 149 30
0.081019044 0.22360517 0.66748041 0.0047121854 136 28
0.084279746 0.22390036 0.66799259 0.0044829627 138 28
0.088607229 0.22690608 0.67656815 0.0057681473 106 22
0.092618041 0.22891977 0.68215847 0.0059669004 108 22
0.097785845 0.23356144 0.69554824 0.0063050482 96 19
0.10019972 0.23153733 0.68906265 0.0059314612 110 22
0.10074336 0.22545539 0.6704973 0.004589485 144 29
0.10187633 0.22102369 0.65684164 0.0037463547 175 36
0.10468514 0.22038285 0.65444273 0.0037848696 183 38
0.10673077 0.21821851 0.6475057 0.0033115009 219 45
0.10931598 0.21724766 0.64409685 0.0028246699 249 51
0.10798845 0.20876549 0.61842126 0.0014376045 721 149
nan nan nan 0 1936 255
0.11311056 0.2073739 0.61318964 0.0008715482 1538 255
0.11887851 0.2124621 0.62763453 0.0015648213 627 130
0.1238367 0.21588871 0.63712472 0.0017998705 483 100
nan nan nan 0 491 102
nan nan nan 0 410 85
nan nan nan 0 305 63
nan nan nan 0 248 51
0.18183453 0.2823337 0.82863134 0.003514075 204 42
nan nan nan 0 182 37
0.19387877 0.28841898 0.84439886 0.0042305444 177 36
0.20225115 0.2946988 0.8616668 0.0041965181 179 37
0.20767118 0.29651076 0.86580807 0.0035540115 206 42
0.21650274 0.30302617 0.88361812 0.0032775206 221 45
0.22090659 0.30321223 0.88291234 0.0037412222 217 45
0.22209291 0.29905871 0.86955494 0.003720809 193 40
nan nan nan 0 168 34
nan nan nan 0 166 34
nan nan nan 0 185 38
nan nan nan 0 205 42
nan nan nan 0 238 49
0.18613257 0.22502799 0.64813954 0.0029690475 262 54
0.18887894 0.22452483 0.64559966 0.0027810445 263 54
0.18844357 0.22031833 0.63241947 0.0027278461 267 55
0.18472576 0.21247268 0.60884041 0.0024801847 301 62
0.18707313 0.21174212 0.60568291 0.0025147065 299 62
0.19403265 0.21617295 0.61726344 0.0049629179 143 29
0.19313544 0.21184887 0.60384005 0.0092323441 65 13
0.19493145 0.21056561 0.59911114 0.0086276429 64 13
0.19736977 0.21000423 0.59644771 0.007167914 78 16
0.20011279 0.20977883 0.59474814 0.0059139789 101 21
0.20251974 0.20921284 0.59209633 0.0047635925 150 31
0.20533136 0.20907509 0.59067369 0.0036115453 182 37
0.21055312 0.21136069 0.59610486 0.0035814287 177 36
0.21549682 0.21330728 0.60058242 0.005850181 107 22
0.21733618 0.21216977 0.59640032 0.0088249231 70 14
0.21606693 0.20806961 0.58394635 0.0083530219 73 15
0.21911927 0.20818512 0.5833782 0.0096500851 63 13
0.21852313 0.20487691 0.5732708 0.0089311134 65 13
0.21895798 0.20260897 0.5661422 0.0079926513 74 15
nan nan nan 0 92 19
0.20325655 0.18330169 0.51091594 0.0051400564 111 23
0.20145226 0.17939572 0.49947971 0.0047150631 135 28
0.20048471 0.17632245 0.49043745 0.0047973488 142 29
0.20299107 0.17634222 0.49006417 0.0043894481 143 29
0.20336492 0.1745314 0.48466697 0.0048677903 127 26
0.2031638 0.17227623 0.47810528 0.0056096571 105 21
0.20483944 0.17164695 0.47612348 0.006988511 80 16
0.20774248 0.17204888 0.47706637 0.008382339 66 13
0.21030033 0.17215893 0.47726497 0.0095217181 60 12
0.2138208 0.17304552 0.47968224 0.0096550137 55 11
0.21707068 0.17369564 0.48151088 0.01097942 48 9
0.21927565 0.17350446 0.4810746 0.013065735 43 8
0.23071498 0.18054374 0.5007596 0.015286655 38 7
0.23702322 0.18345803 0.50908303 0.018322177 31 6
nan nan nan 0 33 6
nan nan nan 0 21 4
nan nan nan 0 24 4
nan nan nan 0 38 7
nan nan nan 0 45 9
nan nan nan 0 45 9
0.33273607 0.23927967 0.66862822 0.014353042 44 9
nan nan nan 0 48 9
0.35869083 0.25282264 0.70864314 0.012275469 47 9
0.35983717 0.25113729 0.70511341 0.013707061 45 9
nan nan nan 0 44 9
nan nan nan 0 45 9
0.36019126 0.24418306 0.68949026 0.011182743 54 11
-0.27076587 0.16481534 0.47242886 0.014965094 46 9
nan nan nan 0 66 13
nan nan nan 0 100 20
nan nan nan 0 43 8
-0.27832669 0.17534773 0.49998817 0.013336904 39 8
nan nan nan 0 29 6
nan nan nan 0 32 6
-0.24699073 0.15980096 0.45238397 0.017457882 32 6
-0.24250284 0.1583201 0.44708896 0.014960325 36 7
-0.23541774 0.155101 0.4369354 0.01214356 41 8
-0.23165832 0.15403375 0.43289834 0.012184639 46 9
-0.23223807 0.15585868 0.43701476 0.012398532 41 8
-0.23458341 0.15891403 0.4445838 0.01251598 41 8
-0.23397957 0.16001061 0.44668376 0.015630404 39 8
-0.23364763 0.1613159 0.44939122 0.013144189 40 8
-0.23257998 0.16213362 0.45076913 0.011927878 45 9
-0.22566484 0.1588511 0.44080305 0.014199634 44 9
-0.22468258 0.15972134 0.44241703 0.01359026 42 8
-0.22189872 0.15931544 0.440539 0.012897074 43 8
-0.22450252 0.16280846 0.44947532 0.01464257 41 8
-0.2252792 0.16503409 0.45493719 0.01348937 41 8
-0.22264509 0.16478112 0.45360965 0.013547736 44 9
-0.21784703 0.16290471 0.44787359 0.012654483 47 9
-0.21891798 0.16542377 0.45427445 0.011376166 48 9
-0.22168817 0.16929391 0.46442252 0.013380478 40 8
-0.21894614 0.16899247 0.46317527 0.013552574 45 9
-0.21575698 0.16833563 0.46101585 0.012528749 44 9
-0.21257879 0.16767305 0.45890406 0.013118197 51 10
-0.20962158 0.167172 0.4572978 0.011134072 48 9
-0.20283447 0.16357122 0.44727844 0.010076301 57 11
-0.20261446 0.16524474 0.45174527 0.010277183 51 10
-0.20220961 0.16680413 0.45596051 0.0088508418 65 13
-0.19992933 0.16683468 0.45605865 0.0073156036 80 16
-0.19745573 0.16670275 0.45577505 0.0065179109 88 18
-0.19252647 0.16446987 0.44980681 0.0050980262 120 24
-0.1887175 0.16315188 0.44639716 0.0044257096 138 28
-0.19608887 0.17158508 0.46973693 0.0057260729 103 21
-0.19631393 0.17389557 0.47639167 0.0060360515 98 20
-0.194958 0.17484573 0.47938418 0.0072209295 89 18
-0.19415955 0.17632613 0.48389214 0.0061824592 93 19
-0.19427484 0.17868479 0.49087432 0.0066784341 81 16
nan nan nan 0 63 13
nan nan nan 0 43 8
nan nan nan 0 41 8
nan nan nan 0 40 8
nan nan nan 0 29 6
-0.2273317 0.22644638 0.62715179 0.013969506 36 7
-0.22392462 0.22618195 0.62741745 0.013102278 41 8
-0.21738027 0.22269605 0.61876047 0.013203426 37 7
-0.21318303 0.22154871 0.61660516 0.020740708 30 6
-0.20999677 0.2214338 0.61733794 0.022578102 27 5
-0.20889316 0.2235442 0.6243 0.019634705 26 5
nan nan nan 0 31 6
nan nan nan 0 34 7
nan nan nan 0 58 12
nan nan nan 0 92 19
-0.19070317 0.22046329 0.62111145 0.0077486848 77 16
-0.18776064 0.22060394 0.62258643 0.011328839 46 9
-0.1863361 0.22256228 0.62919295 0.013966087 40 8
-0.18521447 0.22495466 0.63703656 0.012320545 45 9
-0.17751749 0.2193059 0.62208045 0.0063325693 104 21
-0.17326213 0.21778597 0.61878729 0.0032403513 219 45
nan nan nan 0 182 37
-0.18842438 0.24541397 0.6995241 0.0038852694 190 39
nan nan nan 0 172 35
nan nan nan 0 156 32
nan nan nan 0 153 31
nan nan nan 0 165 34
-0.22194333 0.317819 0.91264939 0.0040044291 173 35
-0.21808267 0.31862816 0.91622972 0.0037619991 188 39
-0.21307901 0.31776628 0.91497147 0.0038818226 182 37
nan nan nan 0 165 34
nan nan nan 0 154 32
nan nan nan 0 137 28
nan nan nan 0 126 26
nan nan nan 0 113 23
nan nan nan 0 121 25
nan nan nan 0 126 26
-0.16915703 0.30237186 0.87878376 0.0045219027 159 33
nan nan nan 0 192 39
nan nan nan 0 197 40
nan nan nan 0 203 42
nan nan nan 0 209 43
nan nan nan 0 252 52
-0.10251458 0.21532403 0.62921846 0.0021333266 399 82
-0.097918242 0.21185042 0.61955804 0.0016235103 556 115
-0.094884418 0.21164691 0.6194331 0.002128588 393 81
-0.094164386 0.21675648 0.63484985 0.0030272086 230 47
-0.092628039 0.22026241 0.64556867 0.0037586975 176 36
-0.091662861 0.22541244 0.66110456 0.0046463259 137 28
-0.089924492 0.22895811 0.67193288 0.0047256411 134 27
-0.088662095 0.2340201 0.68720788 0.0085932063 82 17
-0.093026318 0.2548838 0.7489109 0.0098731173 63 13
-0.089077547 0.25372034 0.74590647 0.010622879 54 11
-0.084458157 0.25047225 0.73674673 0.012359596 56 11
-0.075376607 0.23314339 0.68611979 0.0098042609 66 13
-0.071706928 0.23174928 0.68234235 0.0064472426 87 18
-0.068785906 0.23275749 0.68562061 0.0062443954 94 19
-0.064543352 0.22917277 0.67534989 0.0053919135 113 23
-0.063568093 0.23741911 0.69993341 0.0061082388 97 20
-0.058958348 0.23225072 0.68495673 0.0061160126 101 21
nan nan nan 0 67 13
nan nan nan 0 66 13
-0.048568912 0.2288969 0.67574364 0.0065799216 93 19
-0.045205656 0.22796951 0.67320144 0.0057210503 106 22
-0.042505231 0.23049676 0.6808477 0.0060784691 106 22
-0.03920668 0.22992802 0.67933625 0.0057704072 105 21
-0.035904247 0.22923362 0.6774388 0.0053250715 115 23
-0.033476532 0.23453222 0.69324106 0.0060250536 101 21
-0.030250832 0.23477997 0.6941033 0.0057223327 110 22
-0.025768999 0.22416072 0.66281927 0.0047133439 140 29
-0.02272819 0.22488056 0.66504604 0.0044642929 138 28
-0.019739997 0.22643337 0.66972405 0.0051743407 123 25
-0.016725196 0.22821167 0.67505741 0.0067949011 98 20
-0.013490451 0.22711886 0.67188513 0.0054892893 112 23
-0.010254798 0.22533895 0.66666692 0.0051455018 124 25
-0.0070489501 0.22293784 0.65959752 0.004674763 145 30
-0.0039282441 0.22157688 0.6555928 0.0041468977 159 33
-0.0008501212 0.22146037 0.65525764 0.0041686641 180 37
0.0022542248 0.22427487 0.66358238 0.0050235619 131 27
0.0054301033 0.22681147 0.6710723 0.005807417 103 21
0.0086118113 0.22763948 0.67349398 0.0054949727 110 22
0.011715357 0.22651155 0.67011648 0.0053255851 128 26
0.014712417 0.22423817 0.66333812 0.0040760594 172 35
0.017908297 0.22526005 0.66629547 0.0040707006 158 32
0.020808849 0.22281569 0.65898776 0.0035501057 188 39
0.024227483 0.22583351 0.66782165 0.0045977342 146 30
0.027937077 0.23056068 0.68169403 0.0052995491 122 25
0.031054657 0.2299322 0.67971611 0.004818588 130 27
0.034023032 0.22841927 0.67511117 0.0048696715 141 29
0.036080342 0.22156955 0.65472472 0.004136723 155 32
0.039666198 0.22444561 0.66306627 0.0037545066 179 37
0.04257036 0.22332633 0.65958977 0.0038665005 188 39
0.045683347 0.22338016 0.65956491 0.0043100901 169 35
0.049303152 0.22574776 0.66635549 0.0043011671 152 31
0.052479193 0.22592182 0.66665447 0.0043900735 144 29
0.05561221 0.22590148 0.66636485 0.0043067825 148 30
0.058127247 0.22350708 0.65905976 0.0045251995 142 29
0.060995564 0.222645 0.65626144 0.004399607 147 30
0.064326189 0.22347227 0.65842718 0.0045469343 135 28
0.067504302 0.22371785 0.65886194 0.0046798871 135 28
0.070529811 0.22345839 0.65779305 0.0042189662 151 31
0.073571414 0.22326958 0.65691656 0.0039912942 159 33
0.076810293 0.22367056 0.65775812 0.0044382187 143 29
0.080848053 0.22627625 0.66506124 0.0043926518 144 29
0.084049359 0.22643344 0.6651457 0.0046170373 138 28
0.087503523 0.22723599 0.66710621 0.005491667 110 22
0.092581205 0.23205188 0.68082005 0.0059393751 99 20
0.095859811 0.23218618 0.6807701 0.0061552245 101 21
0.097589336 0.22868173 0.67003822 0.005019153 134 27
0.0988281 0.22428448 0.65668684 0.0041174856 167 34
0.10185459 0.22408913 0.65562797 0.003904667 163 33
0.10432608 0.2227205 0.65111965 0.0038607575 179 37
0.10650708 0.22082844 0.64506817 0.0036965148 180 37
0.10933408 0.22034416 0.64311397 0.0030254081 236 49
0.10838903 0.21249141 0.61965364 0.0021621534 417 86
0.11096384 0.21177258 0.61699802 0.0012034597 993 206
0.11333609 0.21071421 0.61333728 0.0010807536 1088 226
0.11768054 0.21328354 0.62021017 0.0015875584 627 130
0.12063459 0.21326864 0.61953968 0.0017791922 511 106
0.12348071 0.21306822 0.61830878 0.0016393771 606 126
0.12838668 0.21634828 0.62714636 0.0016069314 578 120
nan nan nan 0 471 97
nan nan nan 0 344 71
nan nan nan 0 256 53
nan nan nan 0 219 45
0.19225223 0.29002777 0.83570409 0.0035945943 201 41
0.19880529 0.29375815 0.84534204 0.0039007857 202 42
0.20744789 0.30036396 0.86318409 0.0036668109 196 40
0.21310349 0.3024697 0.86802864 0.0039876085 193 40
0.21860889 0.30428496 0.87199259 0.0038738882 181 37
0.22082755 0.30154327 0.86287153 0.0042127329 166 34
nan nan nan 0 150 31
nan nan nan 0 161 33
nan nan nan 0 170 35
0.18738258 0.2378301 0.67634511 0.0037457566 177 36
0.18863237 0.23526874 0.66797042 0.003752515 184 38
0.18575884 0.22773944 0.64552152 0.0035514636 189 39
0.18797666 0.22659971 0.6412099 0.0039685653 187 38
0.18575908 0.22023885 0.62214798 0.003545237 212 44
0.184664 0.21539342 0.60741109 0.0031266534 248 51
0.18774486 0.21549565 0.60664272 0.0030948028 245 50
0.19547662 0.22084926 0.62062621 0.0049497583 130 27
0.1955892 0.21756233 0.61031646 0.009493053 58 12
0.19566077 0.21433045 0.60019511 0.010790558 61 12
0.19707392 0.21264304 0.59442812 0.0095651997 66 13
0.199691 0.2122853 0.59239721 0.0079369741 71 14
0.20190868 0.21151957 0.58924609 0.0060149035 100 20
0.2052179 0.21190289 0.58931494 0.0050292057 140 29
0.2082283 0.21197119 0.58852696 0.0032117092 212 44
0.21493456 0.21574745 0.59804296 0.0038853006 171 35
0.218265 0.21607783 0.59802008 0.0049769511 118 24
0.21595958 0.21089554 0.58279657 0.0074381982 92 19
0.21580118 0.20792058 0.57374656 0.0070937551 72 14
0.21718033 0.20648606 0.56900877 0.0087765055 72 14
0.2154229 0.20214565 0.55633235 0.0069435295 83 17
0.20707044 0.191808 0.5272516 0.0063330741 100 20
0.20533317 0.18778275 0.5156216 0.0049288683 123 25
0.20371263 0.18396388 0.50463581 0.0043873438 144 29
0.2031652 0.1811967 0.49660918 0.0040843259 156 32
0.20353635 0.17930648 0.49105549 0.0045822067 135 28
0.20871152 0.18164293 0.49713784 0.0054088617 111 23
0.20595852 0.17710604 0.48447436 0.006535104 84 17
0.20796812 0.17672332 0.48324502 0.0080082882 70 14
0.20974982 0.17615815 0.48158213 0.01159552 57 11
0.21328275 0.1770598 0.48399487 0.0098713981 54 11
0.21816078 0.1790448 0.48943505 0.011853209 46 9
0.22420686 0.18193291 0.49741274 0.011469712 47 9
0.22716847 0.18228163 0.49851725 0.015743872 42 8
0.23418652 0.18584169 0.50847685 0.015878245 37 7
0.2418489 0.18982987 0.51968706 0.018963899 29 6
nan nan nan 0 23 4
nan nan nan 0 21 4
nan nan nan 0 28 5
nan nan nan 0 38 7
nan nan nan 0 39 8
nan nan nan 0 42 8
0.33204654 0.24214722 0.66794789 0.013290606 44 9
nan nan nan 0 48 9
nan nan nan 0 43 8
nan nan nan 0 49 10
nan nan nan 0 57 11
nan nan nan 0 59 12
0.32489124 0.22335462 0.62279081 0.011404066 58 12
-0.35022414 0.21614267 0.61084223 0.018957153 25 5
nan nan nan 0 36 7
nan nan nan 0 32 6
-0.25659409 0.16247958 0.45842811 0.013734924 48 9
-0.24932106 0.1592557 0.44849169 0.0088815391 65 13
nan nan nan 0 44 9
nan nan nan 0 31 6
-0.25275916 0.16580452 0.46369311 0.020065272 26 5
-0.24620245 0.16296801 0.45464215 0.015605196 36 7
-0.23922233 0.15979673 0.44470856 0.014711226 34 7
-0.23502468 0.15844269 0.43988374 0.012187052 40 8
-0.23558769 0.16030274 0.44400615 0.011826309 44 9
-0.23387906 0.16063754 0.44392157 0.014456324 40 8
-0.2323678 0.16111557 0.4442625 0.012438112 43 8
-0.23392402 0.16375002 0.45056814 0.016423889 35 7
-0.23306108 0.16472565 0.45232806 0.013763831 38 7
-0.2319224 0.16552357 0.45363155 0.014291424 42 8
-0.22740357 0.163901 0.44834846 0.015711363 37 7
-0.22602874 0.16453473 0.44928679 0.014098486 41 8
-0.22436014 0.16496517 0.44971088 0.01292541 40 8
-0.22374909 0.16618991 0.45234054 0.014992073 40 8
-0.22190136 0.16651182 0.45255569 0.012609118 38 7
-0.21916789 0.16616888 0.45101479 0.013685952 45 9
-0.21947297 0.16814667 0.45581979 0.013636831 42 8
-0.22179791 0.17173034 0.4650149 0.012807966 41 8
-0.22047211 0.17253391 0.4667258 0.012936815 43 8
-0.21586636 0.17076029 0.4615255 0.012055597 44 9
-0.21457766 0.17160051 0.46345127 0.01278089 42 8
-0.21108818 0.17067988 0.46068153 0.011200233 46 9
-0.20545626 0.16798685 0.45319378 0.011675808 48 9
-0.20725727 0.17137906 0.46218356 0.010001382 55 11
-0.20517206 0.17159872 0.46267605 0.0097512165 57 11
-0.2021073 0.17099468 0.46101013 0.0092268037 63 13
-0.19753435 0.1690855 0.45588729 0.0083920583 74 15
-0.19501336 0.1689083 0.45549482 0.0061235209 90 18
-0.19523852 0.17113394 0.46164396 0.0057098642 105 21
-0.19665793 0.17447323 0.47086316 0.0059385519 98 20
-0.19587579 0.17591745 0.47503382 0.0058726966 96 19
-0.19396809 0.1763742 0.47659937 0.0061031426 96 19
-0.19129011 0.17613323 0.47633639 0.0053678472 113 23
-0.19267572 0.17967546 0.4863669 0.0066499468 99 20
-0.1947826 0.1839907 0.49856293 0.0068812505 82 17
nan nan nan 0 67 13
nan nan nan 0 47 9
nan nan nan 0 36 7
nan nan nan 0 32 6
-0.22465312 0.22688644 0.61881375 0.013605251 37 7
-0.21831331 0.22357698 0.61071265 0.016820796 31 6
nan nan nan 0 31 6
-0.21373358 0.22520608 0.61712265 0.020971416 25 5
-0.21211164 0.22677051 0.62243545 0.018358042 30 6
-0.20966496 0.22748658 0.62544978 0.016300013 30 6
nan nan nan 0 32 6
nan nan nan 0 56 11
nan nan nan 0 95 19
-0.19567618 0.22572976 0.62489545 0.00842785 78 16
-0.19214889 0.22522008 0.62456012 0.012889532 41 8
-0.18806453 0.22403006 0.62232721 0.015708612 30 6
-0.18463363 0.22359192 0.62216914 0.012636315 47 9
-0.17842367 0.21971685 0.61241871 0.0057629989 124 25
-0.17634672 0.22088557 0.61670375 0.0037880784 165 34
nan nan nan 0 135 28
nan nan nan 0 149 30
-0.18961668 0.25039724 0.70249963 0.0040799435 168 34
-0.18745066 0.25209761 0.70837396 0.0045018438 162 33
nan nan nan 0 148 30
nan nan nan 0 140 29
nan nan nan 0 134 27
-0.21995538 0.31934726 0.90265274 0.0045500291 147 30
-0.21647973 0.32067937 0.90767598 0.0041317455 163 33
-0.21226463 0.32094863 0.90966493 0.0044001029 175 36
-0.20634034 0.31859028 0.9041664 0.0046418868 167 34
nan nan nan 0 149 30
nan nan nan 0 128 26
nan nan nan 0 126 26
nan nan nan 0 120 24
nan nan nan 0 147 30
nan nan nan 0 183 38
nan nan nan 0 197 40
nan nan nan 0 192 39
nan nan nan 0 207 43
nan nan nan 0 243 50
-0.11067656 0.2227021 0.63965493 0.0031694914 242 50
-0.10541399 0.2181257 0.62705934 0.0021032977 385 80
-0.10044901 0.21391603 0.61547595 0.001390947 722 150
-0.097994745 0.21496081 0.61898303 0.0021110689 404 84
-0.097324006 0.22010393 0.63428587 0.0032710966 228 47
-0.095853172 0.2237086 0.64515495 0.0042967503 150 31
-0.093609445 0.22568792 0.65132898 0.0046911887 131 27
-0.093806356 0.23388778 0.67545623 0.006047098 102 21
-0.089054972 0.22989367 0.66435677 0.0047048391 139 28
-0.087366626 0.23380376 0.67607993 0.0055216434 116 24
-0.085653514 0.23794265 0.68845987 0.0078603327 77 16
nan nan nan 0 64 13
-0.081533551 0.24515747 0.71012563 0.011738688 54 11
-0.076629162 0.24030969 0.6964432 0.0089456504 70 14
-0.070508361 0.23104081 0.66990948 0.0060409433 110 22
-0.068153381 0.23382041 0.67828441 0.0058958801 104 21
-0.064899698 0.23363879 0.67805588 0.005122182 118 24
-0.061623584 0.23335345 0.67750913 0.0056624422 118 24
-0.058502082 0.23365436 0.67864847 0.0052898824 116 24
nan nan nan 0 87 18
-0.052150927 0.23388211 0.67979425 0.0071114134 87 18
-0.048291259 0.23074955 0.67090529 0.0055694804 106 22
-0.044377986 0.22690408 0.65992236 0.005828179 121 25
-0.041773144 0.22967321 0.66816157 0.0062676766 110 22
-0.039273936 0.23352158 0.67953122 0.0061966931 101 21
-0.035848044 0.23205382 0.67541879 0.0054384777 111 23
-0.032475159 0.23067692 0.6715548 0.0052589797 118 24
-0.028975299 0.22800396 0.66390151 0.0045148511 137 28
-0.025410846 0.22411546 0.65269166 0.0035915945 192 39
-0.02227471 0.22345494 0.65086722 0.0036287673 179 37
-0.01979292 0.23019399 0.67058527 0.0059238989 121 25
-0.016665438 0.2305548 0.67171192 0.006972821 97 20
-0.013381165 0.22840802 0.66551918 0.00561368 122 25
-0.010107018 0.22517645 0.65615129 0.0044437326 139 28
-0.0069713867 0.22354724 0.65143901 0.0041850102 168 34
-0.0038963885 0.22283275 0.64937925 0.0034077764 200 41
-0.00083254039 0.21989293 0.64082175 0.0032557123 211 43
0.0022387595 0.22583 0.65812093 0.0042328555 149 30
0.0053765387 0.22769342 0.66353565 0.0049390011 120 24
0.0084786136 0.22723159 0.66216123 0.0055674487 122 25
0.011554964 0.22651356 0.66002762 0.004373264 152 31
0.014636192 0.22617488 0.65898663 0.0035857968 181 37
0.017629385 0.22483183 0.65500695 0.0036674589 183 38
0.020683665 0.2245515 0.65411073 0.0034716555 204 42
0.02408807 0.22765271 0.66305077 0.0045741703 149 30
0.027707908 0.23184557 0.67515355 0.0048967539 133 27
0.030792523 0.23115812 0.67302924 0.0045695319 142 29
0.033180669 0.22585809 0.6574648 0.0039525772 166 34
0.035894159 0.22348788 0.65041995 0.0032636041 209 43
0.038978815 0.22361964 0.65064448 0.0032468641 207 43
0.042089365 0.22386992 0.65119958 0.0034440549 216 44
0.045283306 0.2244996 0.65284336 0.0040490152 171 35
0.048858345 0.22681843 0.65938234 0.004132912 157 32
0.052385714 0.22865187 0.66449159 0.0043120966 147 30
0.055449754 0.22837014 0.66343725 0.0043520946 150 31
0.057801686 0.22534238 0.65439361 0.0046690986 156 32
0.060559265 0.22412285 0.65059048 0.0033763617 203 42
0.063535281 0.22379042 0.64934856 0.0037261925 177 36
0.067072362 0.22537389 0.6536482 0.00430005 168 34
0.070179924 0.22543824 0.65352339 0.0040314212 175 36
0.073472045 0.22606502 0.6550113 0.0043941275 168 34
0.076683864 0.22640403 0.65564704 0.0042703613 150 31
0.079394087 0.22529332 0.65206826 0.0040290048 157 32
0.083266012 0.22743888 0.65789467 0.00437302 144 29
0.086684503 0.22823578 0.65979671 0.0056074122 117 24
0.091760807 0.23319016 0.67368805 0.0054797851 110 22
0.094011582 0.23087235 0.66654599 0.0047556809 132 27
0.095235527 0.22626576 0.65279019 0.0041505983 155 32
0.098479271 0.22659709 0.65326959 0.0039685355 165 34
0.1012406 0.22583207 0.65056914 0.0036771367 180 37
0.10386278 0.22481123 0.64711571 0.0037711046 172 35
0.10612791 0.22309865 0.64165676 0.0036800026 175 36
0.10881772 0.22234961 0.6389544 0.0034409454 190 39
0.11192246 0.2224662 0.63871992 0.0033934359 198 41
0.11373737 0.22008079 0.6312868 0.0023890848 324 67
0.11500756 0.21679175 0.6212557 0.0017698036 473 98
0.11772834 0.21633385 0.61932659 0.002029381 452 94
0.12064685 0.21625289 0.61845672 0.0017746475 486 101
0.12362942 0.21628787 0.6178968 0.0017218625 532 110
0.12646298 0.21606663 0.61658353 0.0016035016 613 127
0.13026017 0.21746424 0.61986399 0.0017087099 564 117
0.13641421 0.22264606 0.63388669 0.0020526657 400 83
nan nan nan 0 271 56
nan nan nan 0 236 49
nan nan nan 0 188 39
nan nan nan 0 177 36
nan nan nan 0 161 33
nan nan nan 0 149 30
nan nan nan 0 141 29
nan nan nan 0 136 28
nan nan nan 0 137 28
nan nan nan 0 140 29
nan nan nan 0 154 32
0.1844085 0.23730637 0.66423631 0.0043164399 165 34
0.18683143 0.23625921 0.66022807 0.0045270692 161 33
0.18507102 0.23004775 0.64180702 0.0041579353 158 32
0.18708628 0.2286589 0.63686359 0.0040904828 156 32
0.18609002 0.22369577 0.62198514 0.0041657318 171 35
0.18524313 0.21907011 0.60808289 0.0038159185 168 34
0.18870412 0.21960521 0.60852063 0.0039691473 173 35
0.19661069 0.22521591 0.62299174 0.0052905655 112 23
0.19858679 0.22396486 0.61846268 0.01049748 48 9
0.19719155 0.2190076 0.60373378 0.012568327 47 9
0.19720663 0.21574178 0.59371513 0.0096141407 59 12
0.19704613 0.21238318 0.58348465 0.0083140861 62 12
0.20019895 0.21264157 0.58322185 0.0068497858 78 16
0.20415762 0.21373618 0.58526689 0.0056931288 108 22
0.20873018 0.21543346 0.58897495 0.0055938293 124 25
0.21346603 0.21724957 0.59302258 0.0038779257 169 35
0.21617182 0.21697812 0.59139967 0.0039552716 165 34
0.2173609 0.21521233 0.58575112 0.0048400094 129 26
0.2187141 0.21365412 0.58072358 0.0067036245 87 18
0.21806352 0.2102055 0.57062322 0.0068907407 82 17
0.20631552 0.19628865 0.53221375 0.0058142226 100 20
0.20654187 0.19397578 0.52537 0.0059961067 114 23
0.2041664 0.18930915 0.51222515 0.0047620982 127 26
0.20622784 0.18882203 0.51045877 0.0043999502 141 29
0.20665322 0.18686756 0.50478977 0.0045307176 137 28
0.20732065 0.18517713 0.49990165 0.0049726837 115 23
0.20730314 0.18292318 0.4935607 0.0071652159 90 18
0.20969409 0.18282288 0.49309725 0.0091216275 69 14
0.21459469 0.1848872 0.49853516 0.011143236 58 12
0.21818942 0.18579139 0.50090927 0.010707371 51 10
0.21906535 0.18438631 0.49712434 0.011571014 45 9
0.22234067 0.18500982 0.4988758 0.012821287 41 8
0.22845441 0.18795449 0.50695586 0.015025608 35 7
0.23374917 0.19016723 0.5131343 0.016781121 29 6
0.23934397 0.19257259 0.5199067 0.01969734 24 4
0.24631198 0.19601834 0.52956575 0.019490201 26 5
nan nan nan 0 25 5
nan nan nan 0 41 8
nan nan nan 0 45 9
nan nan nan 0 50 10
nan nan nan 0 49 10
nan nan nan 0 50 10
nan nan nan 0 51 10
nan nan nan 0 60 12
0.28865942 0.20919284 0.57167763 0.0092973122 71 14
0.28982559 0.20797317 0.56937492 0.0090001998 69 14
0.29351217 0.20856823 0.57209271 0.0088025257 69 14
0.29689139 0.20893556 0.57424444 0.0080719404 67 13
0.31059694 0.21649355 0.59625566 0.0093911104 59 12
-0.36272848 0.22692657 0.63210058 0.017640678 32 6
nan nan nan 0 27 5
nan nan nan 0 20 4
nan nan nan 0 47 9
nan nan nan 0 65 13
nan nan nan 0 39 8
nan nan nan 0 48 9
-0.25966153 0.17266583 0.47712266 0.015358084 35 7
nan nan nan 0 32 6
-0.24353354 0.16490516 0.4534629 0.017009502 35 7
-0.24197556 0.16536346 0.45362681 0.016249733 31 6
-0.2353531 0.16233702 0.44427142 0.012628385 41 8
-0.23333569 0.1624599 0.44358256 0.013255948 43 8
-0.23293173 0.16371912 0.44602048 0.013642023 40 8
-0.23243013 0.16493326 0.44835573 0.01361478 41 8
-0.23537228 0.16863824 0.45747164 0.016770493 37 7
-0.23373021 0.16909911 0.45780382 0.016431753 39 8
-0.2307224 0.16857119 0.45550102 0.013057014 41 8
-0.22743197 0.16782422 0.45265585 0.012552355 42 8
-0.22363362 0.1666836 0.44880244 0.01517635 45 9
-0.2226907 0.16766974 0.45072204 0.015264865 40 8
-0.22174907 0.16867712 0.4527376 0.01305133 42 8
-0.22001506 0.16909643 0.45321819 0.013420299 37 7
-0.22045831 0.17121546 0.45829603 0.013631056 43 8
-0.22173803 0.17403598 0.46528777 0.012925587 41 8
-0.21999151 0.17451631 0.46606761 0.011886361 45 9
-0.21763718 0.17451964 0.4656285 0.013612495 45 9
-0.21497139 0.17427054 0.46457407 0.012299498 44 9
-0.21232025 0.17402798 0.46359667 0.011644529 48 9
-0.21076994 0.17469233 0.46509427 0.012684446 45 9
-0.21058023 0.17651223 0.46972537 0.012838827 52 10
-0.20937276 0.17751099 0.47222993 0.011620024 51 10
-0.20471653 0.17557505 0.46698982 0.010335755 54 11
-0.20049073 0.17396717 0.4626852 0.0095202234 60 12
-0.19690919 0.17288683 0.45984474 0.0079311477 70 14
-0.19703618 0.17507571 0.46576077 0.0069857449 85 17
-0.1987018 0.17870159 0.47556418 0.0063676783 93 19
-0.19669822 0.17907619 0.47677898 0.0062769782 91 18
-0.19349936 0.17835838 0.47514355 0.0058746939 100 20
-0.19232462 0.17951177 0.47855082 0.0052416543 124 25
-0.19476047 0.18410766 0.49120238 0.0060032154 97 20
-0.1959298 0.18760978 0.50100809 0.0076267393 86 17
-0.19625144 0.19038142 0.50893164 0.0073351497 81 16
nan nan nan 0 62 12
nan nan nan 0 43 8
nan nan nan 0 31 6
-0.22058377 0.22582859 0.6067124 0.018425252 31 6
-0.2097106 0.21770906 0.58573782 0.014655735 37 7
-0.20871678 0.21976057 0.5921405 0.014008634 40 8
-0.20814694 0.22232416 0.59997308 0.013440659 36 7
nan nan nan 0 31 6
nan nan nan 0 40 8
nan nan nan 0 55 11
nan nan nan 0 88 18
-0.20105596 0.23145542 0.62976491 0.0086191436 66 13
-0.19859619 0.23223682 0.63296157 0.012381494 43 8
-0.19642495 0.23338614 0.63717324 0.017750105 27 5
-0.19253422 0.2324966 0.63581973 0.017113516 33 6
-0.18101673 0.22221498 0.60872692 0.006366963 89 18
-0.17895593 0.22339129 0.61297357 0.0045432695 138 28
nan nan nan 0 89 18
-0.20890667 0.26988488 0.74299282 0.0080464939 85 17
-0.20250936 0.26626909 0.73422313 0.0065041967 111 23
-0.19085525 0.25548553 0.70560843 0.0049732151 127 26
-0.18717879 0.25518057 0.70586759 0.0054451819 131 27
-0.18474939 0.25659615 0.7108714 0.0055685416 132 27
nan nan nan 0 122 25
nan nan nan 0 118 24
nan nan nan 0 120 24
-0.21554382 0.32366714 0.90190053 0.0048493827 141 29
-0.21083756 0.32315814 0.90171021 0.0045528589 161 33
-0.20508496 0.32098994 0.89684939 0.004663948 169 35
nan nan nan 0 157 32
-0.18348804 0.29987335 0.83998317 0.0053668562 137 28
-0.17920195 0.29948321 0.83991128 0.0047514965 142 29
nan nan nan 0 155 32
nan nan nan 0 172 35
nan nan nan 0 185 38
nan nan nan 0 201 41
nan nan nan 0 234 48
-0.11576917 0.22380197 0.6317724 0.002569282 297 61
-0.11324914 0.22480346 0.63521105 0.0028926646 241 50
-0.10937203 0.22309211 0.63096094 0.0030903353 248 51
-0.10554086 0.22138005 0.62667912 0.0028350144 250 51
-0.106002 0.22883423 0.64833814 0.003363539 196 40
nan nan nan 0 135 28
-0.10114443 0.2318777 0.65802866 0.0058429814 104 21
-0.098484971 0.23299968 0.66171789 0.006373954 94 19
-0.094838865 0.23178445 0.65874892 0.0054133073 112 23
-0.091705635 0.23178242 0.65920591 0.0050847223 118 24
-0.088920683 0.23269168 0.66223669 0.004690073 134 27
-0.086672023 0.23512246 0.66958487 0.0060303817 115 23
-0.084474578 0.23788247 0.67786074 0.0070048985 99 20
nan nan nan 0 80 16
-0.081230558 0.24759249 0.70633727 0.0097031752 66 13
-0.074355967 0.23637542 0.67469496 0.0080238096 74 15
-0.070173621 0.23309408 0.66566432 0.0060280832 100 20
-0.067322321 0.23413341 0.66895223 0.0061106505 107 22
-0.064657584 0.23595601 0.67446488 0.0058627021 110 22
-0.061395366 0.23567423 0.67394757 0.0058352337 124 25
-0.05817993 0.23555103 0.67386669 0.0048248447 128 26
-0.054661121 0.23411426 0.67001003 0.0056422483 118 24
-0.051599875 0.23458102 0.67158431 0.0059507345 115 23
-0.047180954 0.22853269 0.6544857 0.0048369332 135 28
-0.04383906 0.22721931 0.65092528 0.0041408637 155 32
-0.04177786 0.23284595 0.6672352 0.0056596738 108 22
-0.038878083 0.23433475 0.67167878 0.0067772539 95 19
-0.035636291 0.23384333 0.67043257 0.0055892477 115 23
-0.032091789 0.23107661 0.66264659 0.0047329003 134 27
-0.028485367 0.22721948 0.65171558 0.0040613045 169 35
-0.025270512 0.22593109 0.64813566 0.0033020093 214 44
-0.022228409 0.2260453 0.64856547 0.0038422772 171 35
-0.019586524 0.23091426 0.66262597 0.0050226022 132 27
-0.016519327 0.23166427 0.6648553 0.0053428491 115 23
-0.013273191 0.22966881 0.65919185 0.0049731834 129 26
-0.0099778241 0.2253435 0.64682627 0.0038751769 163 33
-0.0069109784 0.22464611 0.64486039 0.0034770749 197 40
-0.0038712558 0.22442847 0.64425856 0.0034746656 193 40
-0.00084028154 0.224978 0.64584613 0.004161003 182 37
0.002186669 0.22359727 0.64187962 0.0037133829 174 36
0.0052869306 0.22696587 0.65153378 0.0046725087 147 30
0.0083963145 0.2281087 0.65478528 0.004304667 146 30
0.011491439 0.22835433 0.65544814 0.0039233048 167 34
0.014544455 0.22783634 0.65390593 0.0035533961 190 39
0.017599024 0.22751942 0.65292788 0.0037289953 175 36
0.020522837 0.22585779 0.64807808 0.003443118 204 42
0.023714541 0.22719294 0.65181392 0.0042197504 167 34
0.027049368 0.22943595 0.65813941 0.0043159532 150 31
0.030283585 0.23045199 0.66092992 0.0039571687 163 33
0.032761712 0.22606134 0.6482023 0.0036735332 178 37
0.035865963 0.2263716 0.64894253 0.0032985031 205 42
0.038849037 0.22592841 0.64750892 0.0031492012 216 44
0.041832522 0.22555199 0.64625287 0.003294321 228 47
0.044949688 0.22589849 0.64705402 0.0036725027 189 39
0.04836024 0.22758164 0.65166712 0.0039102379 169 35
0.052128009 0.23064403 0.66021007 0.0039224671 168 34
0.054611966 0.22800098 0.65240604 0.0039809323 165 34
0.056885984 0.22481063 0.64302647 0.0034818293 212 44
0.059911136 0.22476174 0.64262062 0.0031883735 236 49
0.063200012 0.22565919 0.6449036 0.0034084441 216 44
0.066082098 0.22508837 0.64297384 0.0029150678 242 50
0.070195191 0.22857633 0.65261781 0.0032935771 202 42
0.073755987 0.23004763 0.65647966 0.0041534263 168 34
0.076619714 0.22931367 0.65403003 0.0045758211 155 32
0.079543754 0.22881027 0.65222228 0.0041165221 153 31
0.082021251 0.22710808 0.64698309 0.0039020528 166 34
0.085631654 0.22855245 0.65068996 0.0042236461 150 31
0.089784756 0.2312943 0.65806442 0.0043489235 147 30
0.092201985 0.22953032 0.65259826 0.0039470526 164 34
0.094212808 0.22690241 0.644665 0.0037397004 183 38
0.0977723 0.22805236 0.64744872 0.0038528459 184 38
0.10107215 0.228545 0.64834273 0.0036077416 183 38
0.10285681 0.22568382 0.63970768 0.0036124096 180 37
0.10549451 0.22480521 0.6366806 0.0035617652 188 39
0.10857991 0.22490318 0.6364004 0.0037457095 175 36
0.11168189 0.22502919 0.63617796 0.0041829478 154 32
0.11533566 0.22623084 0.63897163 0.0041161668 166 34
0.11857939 0.22658691 0.63935131 0.0033833326 199 41
0.1210961 0.2255708 0.6358391 0.003069967 224 46
0.12352634 0.22444752 0.63200891 0.00268122 271 56
0.12434585 0.22052148 0.62027991 0.0023335251 330 68
0.1271306 0.22018293 0.61863291 0.0022568505 400 83
0.12991564 0.21986033 0.61701101 0.0019187755 427 88
0.1336091 0.22105516 0.61962277 0.0022564144 341 70
0.13891768 0.22481146 0.62937528 0.0030692073 253 52
0.14487478 0.22943407 0.64150155 0.0033264903 204 42
0.15010074 0.23272926 0.64986539 0.004434179 162 33
nan nan nan 0 146 30
nan nan nan 0 138 28
nan nan nan 0 127 26
nan nan nan 0 114 23
nan nan nan 0 113 23
nan nan nan 0 121 25
nan nan nan 0 123 25
0.18433665 0.24477889 0.67556041 0.0049978825 124 25
0.18369687 0.23962903 0.66028947 0.0048172725 132 27
0.18495822 0.23709461 0.6522451 0.0044655213 146 30
0.18414319 0.23203014 0.63726288 0.004695158 136 28
0.18596853 0.2304066 0.63175154 0.0047132964 133 27
0.18733616 0.2282788 0.62486756 0.0047150352 140 29
0.187958 0.22532587 0.61574388 0.0045603244 142 29
0.18921986 0.22322211 0.6089623 0.0049034869 129 26
0.19713832 0.22891392 0.62343252 0.0070975088 81 16
0.19851634 0.22695257 0.61704725 0.011540883 53 11
0.19652507 0.22125752 0.60055429 0.013265449 42 8
0.1960111 0.21737152 0.58902699 0.011879631 53 11
0.19478396 0.21282108 0.57575285 0.0090273758 63 13
0.19668022 0.21176602 0.57197899 0.0074734306 72 14
0.20227431 0.21466558 0.57890236 0.006454329 87 18
0.20592496 0.21544981 0.58013391 0.005788587 99 20
0.21156773 0.2182674 0.58685893 0.0052580219 118 24
0.21432516 0.21807171 0.58550948 0.0040704082 154 32
0.21735744 0.21815716 0.58495718 0.0039117206 175 36
0.21955229 0.21741109 0.58222389 0.0059161712 110 22
0.22031038 0.21528077 0.57584339 0.0076620742 83 17
0.20526609 0.19796559 0.52895647 0.0060152635 105 21
0.20608474 0.19619796 0.52371967 0.0050238576 123 25
0.20609976 0.19371983 0.51665252 0.0047611878 144 29
0.20819566 0.19323522 0.51496679 0.0043444131 148 30
0.20898606 0.19156596 0.51018828 0.0045728479 136 28
0.20944799 0.18964013 0.50479382 0.0059090075 104 21
0.21009834 0.18792941 0.50003946 0.0083794547 75 15
0.21313173 0.18836567 0.50106329 0.0096802767 54 11
0.21828285 0.19064119 0.50704348 0.012471044 51 10
0.22102843 0.19078723 0.50742549 0.012588483 44 9
0.22228478 0.18965924 0.50448585 0.013381515 39 8
0.22877526 0.19297194 0.51342672 0.014585208 38 7
0.23551506 0.1964179 0.5227955 0.015920965 35 7
nan nan nan 0 26 5
nan nan nan 0 31 6
nan nan nan 0 38 7
nan nan nan 0 55 11
nan nan nan 0 53 11
nan nan nan 0 57 11
nan nan nan 0 81 16
0.27055368 0.20697723 0.55509305 0.0057819784 104 21
0.27080017 0.20504589 0.55072242 0.0057015559 117 24
0.27533621 0.20636873 0.5551486 0.0066392901 85 17
0.27889985 0.20694356 0.55762851 0.0069038104 79 16
0.28473416 0.20917507 0.56464171 0.0064674406 89 18
0.28814295 0.20959833 0.56684101 0.0078506926 81 16
0.28982112 0.20876677 0.56569731 0.0090168817 68 14
0.2941756 0.20986044 0.56982267 0.01178939 53 11
0.29918972 0.21139938 0.57522118 0.012787162 45 9
-0.40507379 0.25684306 0.70487314 0.016097425 36 7
nan nan nan 0 32 6
nan nan nan 0 30 6
nan nan nan 0 47 9
nan nan nan 0 32 6
-0.2738021 0.18127133 0.49717531 0.014004684 48 9
nan nan nan 0 58 12
-0.2691209 0.18137446 0.49529386 0.014122361 41 8
-0.27170238 0.18477479 0.50337636 0.017091336 29 6
-0.26650095 0.182896 0.49705145 0.017992135 29 6
nan nan nan 0 30 6
-0.23726512 0.16586758 0.44861287 0.017497733 31 6
-0.23503099 0.16585177 0.44752359 0.014108412 37 7
-0.23456678 0.16709647 0.44985813 0.013136078 41 8
-0.23623194 0.16989647 0.4563891 0.015571453 37 7
-0.23590642 0.17130518 0.45919439 0.015812354 35 7
-0.23289156 0.17076942 0.45682108 0.014885782 37 7
-0.23264879 0.17227583 0.45994565 0.017565476 36 7
-0.23155011 0.17317215 0.4614709 0.013692561 41 8
-0.22748543 0.17184599 0.45711908 0.013254352 38 7
-0.2244091 0.17124704 0.45475554 0.012951954 41 8
-0.22336292 0.17220089 0.45656013 0.013845598 43 8
-0.22539909 0.1755756 0.46481356 0.013186766 39 8
-0.22545323 0.17746101 0.46915421 0.014185932 41 8
-0.22253507 0.17702202 0.46739638 0.013023699 41 8
-0.22136503 0.17797914 0.46937653 0.012452775 41 8
-0.21894722 0.17794287 0.46878904 0.013934965 43 8
-0.2146446 0.17635724 0.46417975 0.012071374 40 8
-0.21170598 0.17586957 0.46252203 0.011983406 45 9
-0.21348125 0.17933078 0.47130191 0.013681407 45 9
-0.21446586 0.18219875 0.47857168 0.014427814 47 9
-0.21251822 0.18261278 0.47945249 0.011774399 43 8
-0.20693073 0.17987253 0.4721151 0.011613012 49 10
-0.20448783 0.17983344 0.47193089 0.0098171141 57 11
-0.20214231 0.1798801 0.47203287 0.0095290625 54 11
-0.2035221 0.18328269 0.48100296 0.008936909 66 13
-0.20098501 0.18319781 0.48088267 0.0076904017 76 15
-0.19802944 0.18272465 0.47980341 0.0077619902 78 16
-0.19531816 0.18246794 0.47935086 0.0070292777 99 20
-0.19437288 0.18387538 0.48332953 0.006562137 93 19
-0.19612819 0.18790616 0.49426979 0.0071408935 88 18
-0.19501756 0.18925996 0.49823388 0.0064701862 91 18
-0.19213827 0.18891028 0.49776852 0.0072113103 91 18
-0.19313765 0.19241545 0.50751936 0.007012208 78 16
nan nan nan 0 61 12
nan nan nan 0 44 9
-0.21893442 0.22716917 0.60133421 0.016122092 32 6
-0.21124318 0.22226384 0.58914185 0.01333636 41 8
-0.20785685 0.22181284 0.58877635 0.012566032 38 7
nan nan nan 0 37 7
nan nan nan 0 41 8
nan nan nan 0 57 11
nan nan nan 0 86 17
-0.20549926 0.23609456 0.6315614 0.009481485 64 13
-0.20187965 0.23554447 0.6311233 0.013378919 39 8
-0.19887054 0.23570052 0.63258594 0.017995115 30 6
-0.19693731 0.23715723 0.63755345 0.021241412 25 5
-0.1933721 0.23666418 0.63728678 0.015561395 43 8
nan nan nan 0 93 19
nan nan nan 0 64 13
-0.21018222 0.27047998 0.73196304 0.010748185 55 11
-0.20851497 0.27301937 0.7400369 0.0094054863 64 13
-0.20356959 0.27128044 0.73650587 0.0083212946 82 17
-0.19385913 0.26301375 0.71519476 0.007346028 100 20
-0.18794954 0.25969413 0.70727038 0.0059509524 108 22
-0.18478458 0.26011345 0.70949936 0.0057159495 107 22
-0.18484116 0.26517034 0.72438139 0.0058688181 104 21
nan nan nan 0 105 21
nan nan nan 0 103 21
nan nan nan 0 118 24
-0.20995557 0.32615536 0.89606839 0.0051652845 130 27
-0.20388365 0.32342228 0.8897503 0.0047641681 140 29
nan nan nan 0 139 28
-0.18713546 0.30996752 0.85493112 0.0047835275 146 30
-0.17955919 0.30413565 0.83987975 0.0050018053 147 30
nan nan nan 0 147 30
nan nan nan 0 157 32
nan nan nan 0 186 38
-0.12339614 0.22976451 0.6374048 0.0029495275 248 51
-0.11780064 0.22493033 0.62465036 0.0024158149 316 65
-0.11455555 0.2244487 0.62394649 0.0029837778 250 51
-0.11355578 0.22845849 0.63571674 0.0033285888 199 41
-0.11132594 0.23014644 0.64102012 0.0042992849 174 36
-0.10993268 0.23370855 0.65153569 0.0044285553 137 28
-0.10702587 0.23416696 0.65338767 0.0054875105 110 22
-0.10854053 0.24461763 0.68312514 0.0097667286 67 13
-0.10343437 0.24033217 0.67170346 0.0093987826 65 13
-0.098960079 0.2372878 0.66371286 0.0072147762 80 16
-0.095204197 0.23582181 0.66010678 0.0055495054 108 22
-0.091840051 0.23525915 0.6590054 0.0051301117 121 25
-0.088908292 0.23580356 0.66098505 0.0049707112 125 25
-0.086248808 0.23713642 0.66515893 0.0055071199 119 24
-0.083978988 0.23968288 0.6727249 0.0056167869 110 22
-0.081684381 0.24235722 0.68063974 0.0059475494 99 20
-0.079048507 0.24419776 0.68620116 0.0070635495 86 17
-0.075798549 0.24421783 0.68663156 0.0063628512 98 20
-0.070277005 0.23659229 0.66553646 0.0057746023 117 24
-0.066963293 0.23603208 0.66428673 0.0050041461 124 25
-0.064215109 0.2375083 0.66875237 0.0061362195 113 23
-0.061189882 0.23805983 0.67059994 0.0055441945 123 25
-0.0574154 0.23559725 0.66393811 0.0047458299 133 27
-0.054571655 0.23688979 0.66784078 0.0043550129 146 30
-0.050515205 0.23275356 0.65641969 0.0043684873 156 32
-0.046787914 0.22969165 0.64800566 0.0036717963 179 37
-0.043837383 0.23028125 0.64987558 0.0039092307 177 36
-0.04160089 0.23499309 0.6633684 0.0052241473 114 23
-0.038588278 0.23573127 0.66563338 0.0060790265 111 23
-0.035143618 0.23372702 0.66013873 0.0054462128 115 23
-0.031578097 0.2304507 0.65103298 0.0044560358 147 30
-0.028304689 0.22882955 0.646586 0.0036114203 184 38
-0.025259685 0.22888634 0.64686531 0.0034255607 195 40
-0.022229612 0.22911258 0.64760977 0.0038381305 176 36
-0.019192014 0.22932102 0.6482904 0.0041274591 160 33
-0.016312899 0.23186107 0.65554959 0.0044555925 140 29
-0.012975527 0.22755253 0.6434316 0.003650001 177 36
-0.0099236267 0.22714831 0.64233881 0.003740208 198 41
-0.0069082952 0.22759369 0.64363509 0.0036205309 182 37
-0.0038809681 0.22803216 0.64489859 0.0036794881 180 37
-0.00083963451 0.22784288 0.6443736 0.0035480447 191 39
0.0021992736 0.22792538 0.64460403 0.0032807367 205 42
0.0051811063 0.2254288 0.63752735 0.0032372773 210 43
0.0082157338 0.22621921 0.63973325 0.0034336129 198 41
0.011253733 0.22665299 0.64091724 0.0034499881 194 40
0.014421314 0.22896041 0.64738542 0.0035779034 184 38
0.017468842 0.22888851 0.64711219 0.0038433473 178 37
0.020388301 0.22740956 0.64284772 0.0030636715 226 47
0.023337249 0.22659989 0.64046258 0.0033249995 206 42
0.026614645 0.22879943 0.6465683 0.0037984971 194 40
0.029585531 0.2281826 0.64470041 0.0035142864 207 43
0.032561842 0.22771873 0.64325148 0.0031529358 220 45
0.035798788 0.22900121 0.64672065 0.0032476629 209 43
0.038521826 0.22705309 0.64105254 0.0031952057 243 50
0.041462842 0.22658004 0.6395365 0.0030220167 231 48
0.044765446 0.22801299 0.6433847 0.0033278307 201 41
0.047879543 0.22836462 0.64416522 0.0036704747 196 40
0.050927885 0.22837926 0.64397979 0.0033881655 207 43
0.054002617 0.22850396 0.64408904 0.0036644815 200 41
0.05687831 0.22781812 0.64189869 0.003233538 243 50
0.059626848 0.22671832 0.63852817 0.00279432 249 51
0.062705405 0.22691897 0.63880521 0.0029559219 257 53
0.066058189 0.2280478 0.64167702 0.0029497256 240 49
0.06941358 0.22908589 0.64427382 0.0034929558 215 44
0.073501021 0.23235063 0.65310943 0.00362471 184 38
0.076327659 0.23152684 0.65043139 0.0040237238 160 33
0.078305952 0.22829382 0.64097381 0.0038637945 198 41
0.081106983 0.2276116 0.63866663 0.0032295627 215 44
0.084743254 0.22923802 0.64281726 0.0034103768 192 39
0.088263184 0.23044744 0.64577478 0.0035494678 194 40
0.090612337 0.22862151 0.6402086 0.0034163957 220 45
0.093833484 0.22904295 0.64091927 0.0032354235 205 42
0.097628921 0.23079547 0.64533031 0.0038647577 178 37
0.1000523 0.22929642 0.64062911 0.0034940196 198 41
0.1029057 0.22884253 0.63883209 0.0036281545 197 40
0.10524374 0.22730178 0.63398534 0.0035478033 195 40
0.10812812 0.22699414 0.63256162 0.0042409832 165 34
0.1119667 0.22865196 0.63659072 0.0041619521 156 32
0.11547489 0.22956504 0.63851839 0.0042690462 166 34
0.11837159 0.22924669 0.63699776 0.0034742462 194 40
0.12125493 0.22891913 0.63543159 0.0033605904 200 41
0.12418292 0.22868994 0.63411808 0.0035510079 204 42
0.12718128 0.22859818 0.63316482 0.0031565765 218 45
0.12854065 0.2256337 0.62424231 0.0032184343 226 47
0.13078 0.2243142 0.61986274 0.0029501328 252 52
0.13411808 0.22489609 0.62071824 0.0027382437 260 54
0.13770963 0.2258683 0.6226241 0.0033401044 204 42
0.14162852 0.22732425 0.62583351 0.0043505677 162 33
0.14749911 0.23178621 0.63727587 0.0049853437 144 29
0.15122813 0.2327687 0.6391108 0.0043671583 139 28
0.15450251 0.23302601 0.63892895 0.0051284116 131 27
nan nan nan 0 110 22
nan nan nan 0 104 21
0.16966003 0.24132699 0.65880626 0.005926495 98 20
nan nan nan 0 99 20
nan nan nan 0 96 19
0.18231639 0.24536802 0.66674119 0.0061990255 100 20
0.18282288 0.24171199 0.65575999 0.0059254435 104 21
0.18365981 0.23861191 0.64630455 0.0052689016 114 23
0.18354796 0.23440579 0.63387585 0.0051687183 119 24
0.18571304 0.23319961 0.62957656 0.0053582722 116 24
0.18736525 0.23139979 0.62368345 0.0054470864 116 24
0.18752651 0.22784676 0.61308718 0.004954448 125 25
0.18928723 0.22631939 0.60796583 0.0052997856 123 25
0.19499448 0.22948459 0.6154474 0.0073362351 82 17
0.19605659 0.22716963 0.60823625 0.012769298 50 10
0.19502319 0.222534 0.59485382 0.013996561 37 7
0.19427666 0.21835974 0.58275831 0.0126691 40 8
0.1941625 0.21500906 0.57291174 0.010215741 52 10
0.19606131 0.21395256 0.56921947 0.008152158 67 13
0.2000524 0.21517678 0.57162136 0.007322507 78 16
0.20374705 0.21605204 0.57311898 0.0072271647 92 19
0.20779349 0.21727078 0.57555556 0.0064254687 98 20
0.21192525 0.21854398 0.57816756 0.0052712481 107 22
0.21657851 0.22031309 0.58212578 0.0042431201 151 31
0.21880372 0.21959801 0.57956529 0.0045548691 136 28
nan nan nan 0 106 22
0.2049212 0.20030387 0.52756739 0.0052951947 112 23
0.20658207 0.19932933 0.52454489 0.004459878 137 28
0.20829605 0.19843011 0.52178168 0.0044632093 156 32
0.20894378 0.19655044 0.51650488 0.0043170964 146 30
0.21042764 0.19549417 0.51345742 0.0048720306 125 25
0.21121971 0.19382887 0.50887603 0.0071359682 77 16
0.21481612 0.19474618 0.51113969 0.0092716701 57 11
0.2189682 0.19613932 0.51471561 0.012397339 47 9
0.22309624 0.19747828 0.51821494 0.012190959 47 9
0.22448874 0.19639283 0.51541883 0.013227764 40 8
0.22725421 0.19651975 0.51587087 0.016371369 37 7
0.23336855 0.19950664 0.52390021 0.01589526 35 7
0.24119648 0.20387469 0.53563231 0.017121134 29 6
nan nan nan 0 35 7
nan nan nan 0 54 11
0.36270839 0.29655692 0.78086352 0.0087906206 74 15
0.36252981 0.2932142 0.77282161 0.0091665881 67 13
nan nan nan 0 55 11
nan nan nan 0 56 11
0.27194801 0.21305826 0.56360465 0.0080988724 82 17
0.2727797 0.21150038 0.56028634 0.0074629951 86 17
0.27422771 0.21044731 0.55835479 0.0069454233 91 18
0.27565336 0.20939861 0.55648345 0.0060809748 93 19
0.2785908 0.20950784 0.55774087 0.0064707263 91 18
0.28343686 0.21103606 0.56283748 0.0080273077 72 14
0.2873055 0.21181355 0.56599563 0.0093299607 55 11
0.28966016 0.2114706 0.56621289 0.011095753 45 9
0.29345021 0.21217215 0.56927741 0.014323843 38 7
nan nan nan 0 23 4
-0.44022381 0.28285241 0.76445585 0.012082377 52 10
nan nan nan 0 38 7
nan nan nan 0 32 6
nan nan nan 0 25 5
nan nan nan 0 20 4
nan nan nan 0 33 6
nan nan nan 0 41 8
-0.26953495 0.18407574 0.4968307 0.015857155 36 7
-0.26625657 0.18348573 0.49409509 0.013052022 46 9
-0.26828074 0.18657249 0.50120801 0.013796724 38 7
-0.27469152 0.19279507 0.51667684 0.022412619 25 5
-0.27416113 0.19421653 0.51924068 0.021689571 29 6
nan nan nan 0 30 6
-0.24058276 0.17366728 0.46214318 0.015603073 34 7
-0.23848674 0.17380519 0.4614754 0.013843892 39 8
-0.23431028 0.1724149 0.45679209 0.013498046 38 7
-0.23270336 0.17290668 0.45713693 0.016322704 36 7
-0.23536892 0.17661411 0.46599939 0.018562894 34 7
-0.2359792 0.17883788 0.47095713 0.01643691 38 7
