# .PCD v0.7 - Point Cloud Data file format
VERSION 0.7
FIELDS x y z noise intensity gray
SIZE 4 4 4 4 2 1
TYPE F F F F U U
COUNT 1 1 1 1 1 1
WIDTH 864
HEIGHT 1
VIEWPOINT 0 0 0 1 0 0 0
POINTS 864
DATA ascii
-0.079065464 -0.093805626 0.22917737 0.0031557037 253 53
-0.077961534 -0.093870737 0.22957575 0.0031110654 256 54
-0.076778524 -0.09384118 0.22975825 0.003083569 265 56
-0.075658329 -0.09388867 0.2301437 0.0026693465 276 58
-0.075059555 -0.094594762 0.23215869 0.0026700925 284 60
-0.074320108 -0.09514308 0.23380186 0.0027309959 269 57
-0.072778463 -0.094665565 0.23293459 0.0024567803 303 64
-0.071060181 -0.093938947 0.23145926 0.0025755416 286 60
-0.069886401 -0.093919978 0.23173234 0.0026844062 289 61
-0.068520412 -0.093637705 0.23136085 0.0028247144 260 55
-0.068248332 -0.094866306 0.23473057 0.0032744824 207 44
-0.066744305 -0.094395481 0.23390165 0.0036340824 180 38
-0.06511426 -0.093726516 0.23258013 0.0038614194 169 35
-0.063576177 -0.093168117 0.23152998 0.0043327594 164 34
-0.06199988 -0.092532113 0.23028305 0.0037780534 175 37
-0.060407825 -0.091848277 0.2289118 0.0038484423 171 36
-0.06012506 -0.093167089 0.23253256 0.0037359758 175 37
-0.058893654 -0.093038708 0.23254339 0.0036516243 178 37
-0.057583276 -0.092777975 0.23221911 0.0043302281 153 32
-0.05659404 -0.093034588 0.23318619 0.0042241793 153 32
-0.056160305 -0.09423393 0.23651704 0.0043321676 147 31
-0.055333752 -0.094810933 0.23828723 0.0049892203 140 29
-0.054242276 -0.094949149 0.2389518 0.0043403157 147 31
-0.052964717 -0.094760537 0.23878807 0.0044274759 157 33
-0.051747497 -0.09467379 0.23887412 0.0044819503 159 33
-0.050657544 -0.094821259 0.23954499 0.0038022315 202 42
-0.049280785 -0.09442617 0.23883779 0.0029141719 245 52
-0.048113205 -0.094422445 0.23911254 0.0024676267 306 65
-0.046884976 -0.094296552 0.23907046 0.0024238036 336 71
-0.045584589 -0.094015427 0.2386265 0.0024910457 343 72
-0.044199761 -0.093540922 0.23768234 0.0022714681 345 73
-0.043108452 -0.093678787 0.23828593 0.0023566382 328 69
-0.042316511 -0.094492748 0.24060436 0.0024564371 325 69
-0.04112928 -0.094445154 0.24072352 0.0023536969 330 70
-0.040123764 -0.094824217 0.24192341 0.0024750624 338 71
-0.039047558 -0.095053986 0.24273631 0.0023818538 323 68
-0.037785999 -0.094832815 0.24239007 0.0024759625 304 64
-0.036527701 -0.094605967 0.2420207 0.002446722 310 65
-0.035233155 -0.094267093 0.241356 0.0023462733 333 70
-0.034032524 -0.094164968 0.24128908 0.0024115513 342 72
-0.032757819 -0.093843415 0.24065161 0.0024470573 310 65
-0.031650309 -0.093994811 0.24121925 0.0025649981 317 67
-0.030624509 -0.094409607 0.24245666 0.0022876351 343 72
-0.029511308 -0.094577149 0.24305277 0.0023825946 326 69
-0.028324904 -0.094514228 0.2430497 0.0025965965 320 68
-0.026995458 -0.093948089 0.24174435 0.0025149523 298 63
-0.025896473 -0.094169147 0.24245711 0.0024441399 321 68
-0.024682527 -0.093973324 0.24208952 0.0023792065 324 68
-0.023528945 -0.093999319 0.24228626 0.0023934729 321 68
-0.022505175 -0.094573535 0.24389008 0.0024228545 331 70
-0.021282354 -0.094328336 0.24337441 0.0027688674 300 63
-0.020042194 -0.093973465 0.24256837 0.0025105334 312 66
-0.018837811 -0.093753047 0.24210216 0.0025176564 327 69
-0.017671103 -0.093703523 0.24207048 0.0022801361 345 73
-0.016542865 -0.093865387 0.24257852 0.0024991944 325 69
-0.015406703 -0.094003245 0.24301845 0.0022580558 353 75
-0.01426892 -0.09415289 0.24348275 0.0024449229 341 72
-0.013106981 -0.094155535 0.24356073 0.0025317192 297 63
-0.011980622 -0.094439171 0.24435954 0.0024687469 335 71
-0.010843881 -0.094693296 0.24507616 0.0024604995 308 65
-0.0095987264 -0.093947724 0.24319904 0.0023231911 331 70
-0.0084459111 -0.09402521 0.24344607 0.0023131482 342 72
-0.0073048333 -0.094278879 0.24414337 0.0024708479 334 71
-0.0061079091 -0.093771309 0.24286325 0.0023607509 344 73
-0.0049673952 -0.094094917 0.24372981 0.002358627 329 69
-0.0038089606 -0.094172984 0.24395443 0.0022588011 352 74
-0.0026449291 -0.094120488 0.24383493 0.0022604256 348 74
-0.001483263 -0.094135836 0.24388523 0.0022259653 361 76
-0.00032057063 -0.09396144 0.24343805 0.0022237701 371 78
0.00083732925 -0.093732551 0.24284367 0.0022247527 351 74
0.0020085119 -0.094393492 0.24454878 0.0022059747 374 79
0.0031781655 -0.094523609 0.24487266 0.0022276742 365 77
0.004336975 -0.094347954 0.24439839 0.0022064829 357 75
0.0054941406 -0.09421847 0.24403787 0.0021950023 357 75
0.0066798427 -0.094538108 0.24483451 0.0021654516 373 79
0.0078531075 -0.094612814 0.24499072 0.0021371483 379 80
0.0090120789 -0.094518282 0.24470258 0.0021188334 380 80
0.01013752 -0.094134048 0.24365865 0.0024308576 335 71
0.011235029 -0.09359616 0.24221134 0.002188286 364 77
0.012301608 -0.092924953 0.24041364 0.0020078917 421 89
0.013566209 -0.093736492 0.24244584 0.0021016449 408 86
0.014703202 -0.093608059 0.2420401 0.0021121015 388 82
0.015798882 -0.093254469 0.24104635 0.0022194814 363 77
0.016958965 -0.093303256 0.24108659 0.0020286825 412 87
0.018189799 -0.093710326 0.24204579 0.0022311837 382 81
0.019387942 -0.093910366 0.24246317 0.0021617585 385 81
0.020533774 -0.093848743 0.24219829 0.00221415 378 80
0.021768222 -0.09417709 0.2429329 0.002110322 384 81
0.022974301 -0.09435562 0.24327375 0.0020576033 396 84
0.024108881 -0.094237462 0.24284275 0.0021430501 404 85
0.025187775 -0.093922526 0.24189842 0.0020625133 397 84
0.02634776 -0.093924388 0.24176356 0.0021567217 385 81
0.027558867 -0.094100632 0.24207035 0.0022662117 369 78
0.028721772 -0.094104715 0.24192685 0.0020867444 393 83
0.029860031 -0.094030857 0.24157599 0.0022507976 379 80
0.03097043 -0.093878075 0.24101558 0.0022781857 385 81
0.032114774 -0.093835503 0.24073118 0.0022083968 362 76
0.033266541 -0.093816817 0.24050091 0.0023934669 358 76
0.034444448 -0.093870632 0.24044903 0.0020366481 399 84
0.035655849 -0.094009265 0.24060664 0.0022406792 353 75
0.036945514 -0.094338983 0.24124482 0.0022795917 341 72
0.038268659 -0.094731435 0.24203418 0.0024431087 328 69
0.03932856 -0.09446831 0.24114084 0.0023791227 351 74
0.04027579 -0.093957469 0.23960942 0.0024991361 329 69
0.041281186 -0.093607135 0.23848192 0.0024380807 320 68
0.042534601 -0.093822964 0.23878965 0.0025742613 318 67
0.04375774 -0.093962334 0.23889446 0.002447888 356 75
0.045343976 -0.094854064 0.24090186 0.0022821035 346 73
0.046440426 -0.094702102 0.24024923 0.0022890221 345 73
0.047250502 -0.093987986 0.23816565 0.0022847299 344 73
0.048297532 -0.093768127 0.23733018 0.0023755524 344 73
0.049665224 -0.094166547 0.23805223 0.0024540764 313 66
0.050827794 -0.094166718 0.23775953 0.0023335682 328 69
0.052048929 -0.094272956 0.23772787 0.002456923 315 66
0.053234924 -0.094312295 0.23752087 0.0024802592 321 68
0.054292526 -0.094127357 0.23674369 0.0023914448 342 72
0.0552288 -0.093744226 0.23546451 0.0024914362 330 70
0.056279685 -0.093567371 0.23470034 0.0023964334 338 71
0.057455711 -0.093601495 0.23446146 0.0023659496 326 69
0.058620483 -0.093616299 0.23417003 0.0023613158 353 75
0.059996098 -0.093960725 0.23469856 0.0023700513 327 69
0.061051667 -0.093800381 0.23396298 0.0025867729 326 69
0.062182076 -0.093758844 0.23352265 0.0022507182 344 73
0.063438892 -0.093905948 0.23355067 0.002424038 322 68
0.064470612 -0.093720548 0.23275176 0.0025706152 326 69
0.065747209 -0.093891375 0.23283839 0.0023654941 326 69
0.067080043 -0.094135202 0.23310645 0.0024836059 304 64
0.068205692 -0.094084941 0.23264851 0.0024271726 311 66
0.069003284 -0.093591399 0.2311005 0.0024242026 312 66
0.070158899 -0.09359172 0.23077905 0.0025156166 300 63
0.071526214 -0.09386985 0.23114832 0.0024728631 308 65
0.072920464 -0.094173916 0.23158748 0.0024957263 299 63
0.073565051 -0.093515463 0.22967011 0.0023521837 326 69
0.075578272 -0.094590284 0.23201907 0.0025610982 302 64
0.077063292 -0.094981357 0.23269869 0.0026812588 277 58
0.077685013 -0.09431266 0.2307962 0.002707775 278 59
0.078506969 -0.093903199 0.22954606 0.0026942897 270 57
0.079113811 -0.093252093 0.22772409 0.0029005369 243 51
0.080174185 -0.093146585 0.22725374 0.0027322599 264 56
0.081116766 -0.092909135 0.2264808 0.002999305 247 52
0.082264178 -0.092909656 0.22630812 0.0028341247 253 53
0.083461523 -0.092965789 0.2262916 0.0033526996 227 48
0.084435105 -0.092774525 0.22569482 0.002972137 243 51
0.085567258 -0.09276028 0.22555149 0.0030550964 230 48
0.087527074 -0.093631804 0.22758459 0.0032185209 213 45
0.088303648 -0.093231343 0.22654955 0.0036130392 207 44
0.089072555 -0.092833184 0.22554524 0.0033842186 203 43
0.090513296 -0.09313646 0.22627017 0.003422064 198 42
0.091034323 -0.09249761 0.22473153 0.0034435389 192 40
0.091779128 -0.09209916 0.22380212 0.0036353592 192 40
0.092050478 -0.091241166 0.22178067 0.0035535302 189 40
0.093081407 -0.091147706 0.22164211 0.0037336012 178 37
0.095769867 -0.092660204 0.22543555 0.0041779033 165 35
0.097340122 -0.093067862 0.22656885 0.0043450659 159 33
0.097701542 -0.092323713 0.22492267 0.004502018 152 32
0.096481152 -0.090119228 0.21973765 0.0041789049 150 31
0.097602934 -0.090127774 0.2199679 0.0050608609 138 29
0.097768843 -0.089263432 0.21808895 0.0048110913 142 30
0.098228708 -0.088683739 0.21692432 0.0047752587 147 31
0.099046007 -0.088435963 0.21659136 0.0050790845 141 29
0.10070248 -0.088934727 0.21810925 0.0046225442 132 28
0.10039049 -0.087703027 0.21540166 0.0042866128 147 31
0.10159872 -0.08781153 0.21600218 0.0052830521 127 27
0.10264845 -0.087782204 0.21628377 0.0051992573 121 25
0.10363085 -0.0876965 0.21644534 0.0050247218 120 25
0.10456787 -0.087574586 0.21653542 0.0051007005 115 24
0.10544041 -0.087401703 0.21651635 0.0056574498 106 22
0.10510362 -0.086240038 0.21405892 0.0056942119 101 21
0.10661833 -0.086605646 0.21540527 0.0057551586 107 22
0.10670996 -0.085819505 0.21390076 0.0053847702 107 22
0.1072768 -0.08542724 0.21338665 0.0061710095 96 20
nan nan nan 0 90 19
nan nan nan 0 88 18
nan nan nan 0 81 17
nan nan nan 0 111 23
nan nan nan 0 105 22
nan nan nan 0 117 24
nan nan nan 0 119 25
nan nan nan 0 134 28
nan nan nan 0 116 24
-0.10924448 -0.077844672 0.20077381 0.0055568502 119 25
-0.10866182 -0.078125305 0.20132463 0.0047331313 130 27
-0.10880768 -0.078939587 0.20312487 0.0047847098 127 27
-0.10894541 -0.079762809 0.20485932 0.0049019707 136 28
-0.10884544 -0.08042559 0.20612329 0.0050386777 129 27
-0.1077923 -0.080389887 0.20556547 0.004731711 129 27
-0.10612945 -0.079894505 0.20382293 0.0057507446 120 25
-0.10532346 -0.080040887 0.20371775 0.0047236928 129 27
-0.10477787 -0.080389887 0.20413002 0.0048218905 139 29
-0.10481073 -0.081193745 0.20569958 0.0043210997 148 31
-0.10475327 -0.081942663 0.20713283 0.0046523581 140 29
-0.10444401 -0.082507446 0.20810701 0.0039179227 163 34
-0.10355638 -0.082622051 0.20795694 0.0045984071 159 33
-0.10338049 -0.083312549 0.20926812 0.0044004181 148 31
-0.10326768 -0.084068455 0.21075305 0.0045049065 155 32
-0.10341063 -0.085050248 0.21281345 0.0040739281 158 33
-0.10352123 -0.086025551 0.21486688 0.0044733332 142 30
-0.10329343 -0.086737163 0.21627331 0.0044245301 144 30
-0.10075587 -0.085503764 0.21285176 0.0044570183 142 30
-0.10126989 -0.08686132 0.2159 0.0045018792 156 33
-0.10128206 -0.087813199 0.21795227 0.004533276 153 32
-0.10101642 -0.088542417 0.21946774 0.0039994894 163 34
-0.10030896 -0.088896252 0.2200717 0.0042943619 170 36
-0.099342793 -0.089026146 0.22014293 0.003387464 197 41
-0.098627575 -0.089386441 0.22080612 0.0033312736 206 43
-0.097421341 -0.089304879 0.2204012 0.0030934156 232 49
-0.096856646 -0.089816332 0.22148344 0.0037571243 198 42
-0.096082568 -0.090143338 0.2221342 0.0032075041 232 49
-0.095497593 -0.090657629 0.22327055 0.0036858791 207 44
-0.094434634 -0.090725064 0.22333129 0.0032823503 230 48
-0.093641266 -0.091056287 0.22406696 0.002998987 233 49
-0.092715941 -0.09126576 0.22452863 0.0032705523 228 48
-0.091754854 -0.091444813 0.2249414 0.0031860538 217 46
-0.090631418 -0.091464549 0.22498819 0.0032580614 236 50
-0.089737371 -0.091719232 0.22563878 0.0028014388 256 54
-0.08936771 -0.092523418 0.22766717 0.0030246265 241 51
-0.088719793 -0.093056835 0.22905536 0.0029548991 247 52
-0.087526157 -0.09302441 0.22907597 0.0028867403 253 53
-0.085373506 -0.09195815 0.22657321 0.0029117169 245 52
-0.08392062 -0.091626786 0.2259022 0.0029668626 253 53
-0.083062276 -0.091944389 0.22685304 0.0029612703 234 49
-0.082440011 -0.092535891 0.22850242 0.0029216162 240 51
-0.081389867 -0.092657126 0.229012 0.0029487729 259 55
-0.080149077 -0.092561662 0.22900468 0.0026489338 280 59
-0.079237282 -0.092848927 0.2299622 0.0028338763 268 56
-0.078192227 -0.092986271 0.23056561 0.0026976052 270 57
-0.077178836 -0.093165964 0.23128961 0.0029783156 269 57
-0.075857207 -0.092973389 0.23110262 0.0027100965 284 60
-0.07421089 -0.092370652 0.22990538 0.0024538052 305 64
-0.073548757 -0.092993267 0.23176835 0.002680195 294 62
-0.071883589 -0.092347309 0.23047841 0.0026749191 312 66
-0.070610955 -0.092192754 0.23041959 0.0025622437 294 62
-0.069686092 -0.092494681 0.23150836 0.0026074525 283 60
-0.06880483 -0.092865646 0.23277715 0.0029186637 244 51
-0.067768805 -0.093036883 0.23355097 0.0035860662 195 41
-0.066539213 -0.092943706 0.23366368 0.0038670625 190 40
-0.06464234 -0.091898561 0.23138024 0.0035956805 183 38
-0.063456737 -0.091845095 0.23158973 0.0035768789 186 39
-0.062073272 -0.091498002 0.23105669 0.0034922813 193 41
-0.060336392 -0.090607144 0.22914432 0.0035317715 215 45
-0.059073821 -0.090408109 0.22897522 0.0036700554 195 41
-0.058299478 -0.090963081 0.23071396 0.0035195712 204 43
-0.056875441 -0.090506271 0.22988321 0.0035930097 190 40
-0.055884011 -0.090733282 0.23078421 0.0040114219 184 39
-0.055220634 -0.091513373 0.2330908 0.0043155318 172 36
-0.054601286 -0.092400968 0.23567161 0.0040475437 162 34
-0.053632412 -0.092722647 0.2368075 0.0041361451 159 33
-0.05270737 -0.09313599 0.23817377 0.0042198566 151 32
-0.051728878 -0.093471408 0.23933676 0.0044137207 146 31
-0.050757978 -0.093836382 0.24057084 0.0043223575 147 31
-0.049772039 -0.094190158 0.24177149 0.003695833 194 41
-0.048249777 -0.093521528 0.24033956 0.0029963569 272 57
-0.047005329 -0.09337154 0.24023066 0.00250883 311 66
-0.045637019 -0.092961624 0.23944387 0.0024702654 320 68
-0.044153202 -0.092288844 0.23796946 0.0023228382 349 74
-0.043586254 -0.093547821 0.2414701 0.0023690157 338 71
-0.042176485 -0.093017429 0.2403463 0.002331967 332 70
-0.041115511 -0.093248017 0.24118026 0.0022844793 361 76
-0.040055946 -0.093495339 0.24205102 0.0024605561 349 74
-0.039003223 -0.093773976 0.24299644 0.0024751553 335 71
-0.037820473 -0.093747586 0.24314435 0.002309012 338 71
-0.036450792 -0.093241319 0.24203879 0.0026049758 312 66
-0.03519978 -0.093015194 0.24165125 0.0024112081 346 73
-0.034010034 -0.092941046 0.2416504 0.0022380056 352 74
-0.032886554 -0.093049176 0.24211608 0.0022999302 353 75
-0.031684302 -0.092934154 0.24199376 0.0021834814 371 78
-0.030645035 -0.093306638 0.24313399 0.0023589574 339 72
-0.029558277 -0.093558274 0.2439532 0.0022588812 352 74
-0.028304068 -0.093278795 0.24338034 0.002248595 359 76
-0.027141538 -0.093290403 0.24355946 0.0024950225 340 72
-0.026004698 -0.093395337 0.24397536 0.0023914762 326 69
-0.024720091 -0.092954479 0.24295811 0.002266018 348 74
-0.023603855 -0.093134485 0.24355637 0.0022178756 362 76
-0.022329034 -0.092674986 0.24247523 0.0022199526 361 76
-0.021180486 -0.092717938 0.24270149 0.0023612601 347 73
-0.020015964 -0.092691913 0.2427406 0.0023634655 359 76
-0.018844217 -0.092627168 0.2426718 0.0023218652 356 75
-0.017680235 -0.092594616 0.24268079 0.0022288009 354 75
-0.016562257 -0.092815295 0.24334736 0.0022169463 359 76
-0.015429208 -0.09297841 0.24385707 0.0021820597 413 87
-0.014255792 -0.09290503 0.24374035 0.0021830106 364 77
-0.013084371 -0.092832789 0.24362031 0.0020923682 391 83
-0.011930629 -0.092884116 0.24381849 0.0020412551 405 86
-0.01083578 -0.093454443 0.24537338 0.0020404013 413 87
-0.0096974475 -0.093742266 0.24618089 0.0021635138 391 83
-0.0084655592 -0.093080521 0.24448861 0.0022248728 395 84
-0.0072589316 -0.0925299 0.24308169 0.0021680726 417 88
-0.0060837581 -0.092247508 0.24237323 0.0020841602 407 86
-0.0049354983 -0.092336573 0.24263483 0.0020469015 405 86
-0.0038094777 -0.093023062 0.24446066 0.002052729 426 90
-0.0026461775 -0.093002446 0.2444226 0.0019629316 427 90
-0.0014799753 -0.092767648 0.24381581 0.0020883894 395 84
-0.00031862271 -0.092237599 0.2424272 0.0019127177 449 95
0.00083371974 -0.092176363 0.24226496 0.0019777645 434 92
0.0019970459 -0.092695996 0.24362361 0.0019784356 428 91
0.0031688851 -0.093084127 0.24463083 0.0019670466 424 90
0.0043122228 -0.092651419 0.24347493 0.0018727906 464 98
0.0054799295 -0.092814654 0.24387942 0.0019995212 419 89
0.0066584819 -0.093072459 0.24452637 0.0019234989 446 94
0.0078198388 -0.093048967 0.24442832 0.0017784929 496 105
0.0089865932 -0.093087472 0.24448723 0.001912066 441 93
0.010125331 -0.092860185 0.24384223 0.0019092755 441 93
0.011247107 -0.092540108 0.24294785 0.0018647616 471 100
0.01241372 -0.092614233 0.24308249 0.001900038 457 97
0.013592216 -0.092756808 0.24339062 0.0019065512 484 102
0.014726511 -0.092599049 0.24290457 0.0019745815 468 99
0.015830057 -0.092285 0.24200276 0.0019892573 465 98
0.017014572 -0.092453592 0.24236053 0.0018453685 475 101
0.018212203 -0.092667475 0.24283035 0.0019381022 481 102
0.01935586 -0.092597567 0.24255 0.00194949 471 100
0.020547638 -0.09275277 0.24285276 0.0019247492 439 93
0.021779563 -0.093062952 0.24355428 0.0019782591 458 97
0.022969509 -0.093171388 0.24372064 0.0019663288 451 95
0.024044108 -0.092824049 0.2426884 0.0019282062 469 99
0.025079455 -0.09236414 0.24135621 0.0020378318 448 95
0.026253575 -0.092433289 0.24140021 0.0019858642 467 99
0.027448684 -0.092567399 0.24160668 0.0017948843 491 104
0.02861207 -0.092588007 0.24150966 0.0018550557 494 105
0.029765045 -0.092574641 0.24131693 0.001852175 467 99
0.030966023 -0.092705965 0.24149401 0.0019770437 425 90
0.032173369 -0.0928462 0.24168657 0.0019335159 473 100
0.033265695 -0.092656307 0.24101254 0.0019663207 424 90
0.034350645 -0.092459328 0.24031349 0.0019198803 476 101
0.035471879 -0.092369661 0.23988649 0.0018995852 450 95
0.036717817 -0.092600144 0.24028318 0.0019506656 462 98
0.037960362 -0.092808239 0.24061322 0.0018825779 447 95
0.039180249 -0.092950255 0.24076356 0.0022006014 406 86
0.040311273 -0.09287934 0.24035457 0.0023079203 386 82
0.041470278 -0.092875049 0.24011043 0.0022478728 353 75
0.042750094 -0.093134202 0.24053909 0.0022406031 349 74
0.043910217 -0.093125761 0.24026835 0.0023117189 339 72
0.044863418 -0.092690244 0.23888928 0.0022809294 354 75
0.04612124 -0.092890158 0.23914102 0.0022141594 363 77
0.047241956 -0.092810929 0.23866624 0.0022409975 354 75
0.048200097 -0.092423744 0.23739357 0.0022777964 368 78
0.04941275 -0.092531286 0.23738527 0.0024944898 339 72
0.050767697 -0.092894271 0.23802376 0.0025672638 327 69
0.051822212 -0.092703596 0.23723617 0.0022539035 352 74
0.05295955 -0.092666186 0.23683488 0.0023832333 346 73
0.054102495 -0.092639975 0.23645614 0.002299747 343 72
0.055230591 -0.092589967 0.23601088 0.0022372843 357 75
0.056387778 -0.092589781 0.2356872 0.002373612 340 72
0.057593919 -0.092668377 0.23555858 0.0022944475 334 71
0.058991317 -0.093045518 0.2361826 0.0023583933 330 70
0.060115993 -0.092986248 0.2356935 0.0024206701 314 66
0.061075967 -0.092679307 0.2345745 0.0023663896 349 74
0.062036771 -0.092385016 0.23348694 0.0024174061 327 69
0.062398825 -0.091226123 0.23021767 0.0022838369 351 74
0.06453307 -0.092653252 0.23347229 0.0023110055 337 71
0.065850288 -0.092877701 0.23368983 0.0023271027 334 71
0.06722562 -0.093174897 0.23408926 0.0023938438 321 68
0.068175316 -0.092882097 0.23300818 0.002630064 304 64
0.068986453 -0.092413485 0.23149182 0.0025377749 288 61
0.070226945 -0.092525996 0.2314366 0.0025089246 325 69
0.071765624 -0.093021378 0.23234227 0.002498931 312 66
0.073098369 -0.093238264 0.23255652 0.0026251392 299 63
0.074365385 -0.093365848 0.23255503 0.0027043824 301 64
0.075277746 -0.093051098 0.231462 0.0026758178 294 62
0.076121032 -0.09266182 0.23019686 0.0025065159 298 63
0.077700771 -0.093167268 0.23116657 0.0025457221 293 62
0.078520827 -0.092760354 0.22988605 0.0028550986 272 57
0.079252265 -0.092262089 0.22839704 0.0029008188 250 53
0.080379419 -0.092232205 0.22808547 0.002875959 271 57
0.081589863 -0.092297368 0.22802679 0.0028799048 266 56
0.082816988 -0.092379346 0.22802852 0.0027946588 261 55
0.08379861 -0.092188984 0.22737862 0.0029245191 242 51
0.084961519 -0.09220048 0.22724837 0.0030835865 248 52
0.085795507 -0.091859549 0.22627245 0.0029663818 241 51
0.087065317 -0.091988072 0.22647651 0.00321513 215 45
0.08873792 -0.092533253 0.22772984 0.003688287 187 39
0.089749999 -0.09238451 0.22729988 0.0033344401 206 43
0.090579197 -0.092053674 0.22644751 0.0032788105 209 44
0.090993218 -0.09131448 0.22461668 0.0033561175 203 43
0.091530763 -0.090716049 0.22315785 0.0034657628 194 41
0.092850909 -0.090898402 0.22364563 0.0036280274 181 38
0.093612649 -0.090536281 0.2228196 0.0036126517 185 39
0.09508086 -0.090857923 0.22370231 0.0034400355 197 41
0.096622691 -0.091241486 0.22476424 0.0038621644 164 34
0.096821234 -0.0903624 0.22274065 0.004051121 154 32
0.097051747 -0.089533105 0.22086215 0.0041314089 156 33
0.097020857 -0.08848431 0.21846321 0.0046536927 151 32
0.097885057 -0.088266283 0.21813673 0.0046483218 144 30
0.098850019 -0.088142969 0.21806705 0.0044792863 159 33
0.099733934 -0.087950893 0.21784943 0.0040297383 161 34
0.10019664 -0.087395616 0.2167525 0.0045463084 152 32
0.10148589 -0.087565474 0.21747468 0.0046417965 142 30
0.10200774 -0.087076657 0.21658115 0.0046477597 138 29
0.10311893 -0.087095916 0.21697043 0.0046824273 133 28
0.103604 -0.086591467 0.21607327 0.0056078043 126 26
0.10457457 -0.08649902 0.21622114 0.0061311242 113 24
0.10635257 -0.087069511 0.21804737 0.0052040089 133 28
0.10665794 -0.086435027 0.21687397 0.0056556752 113 24
0.10646667 -0.085414842 0.21474238 0.0056597367 104 22
0.10665056 -0.0847129 0.21341893 0.0060734483 99 21
0.10541847 -0.082911082 0.2093271 0.0059807757 96 20
nan nan nan 0 89 18
nan nan nan 0 89 18
nan nan nan 0 91 19
nan nan nan 0 116 24
-0.11233485 -0.07567618 0.19588976 0.0052068895 118 25
-0.11188567 -0.076021813 0.19764094 0.0055483314 124 26
-0.11478417 -0.078667775 0.20511518 0.0048301499 123 26
nan nan nan 0 128 27
-0.11100181 -0.077418722 0.20222332 0.0046765385 134 28
-0.11053195 -0.077777624 0.20303078 0.0051281932 119 25
nan nan nan 0 125 26
-0.10833663 -0.07761544 0.20197812 0.004209117 152 32
-0.10802899 -0.078103274 0.20282497 0.0046148943 142 30
-0.10782243 -0.078673892 0.20384721 0.0045653502 134 28
-0.10691754 -0.078740858 0.20354462 0.0048521291 140 29
-0.10615157 -0.07891234 0.20350647 0.0044137263 153 32
-0.10580938 -0.079405107 0.2042961 0.0039366321 159 33
-0.10541321 -0.079866439 0.2050073 0.0039873142 183 38
-0.10555995 -0.08075203 0.20681098 0.0041211979 155 32
-0.10684431 -0.082533702 0.21090779 0.004088298 155 32
-0.10562549 -0.082397848 0.21011034 0.0041968422 154 32
-0.10493229 -0.082673401 0.21037726 0.0046022851 140 29
-0.10473198 -0.083346747 0.21166852 0.0043667625 143 30
-0.10488182 -0.084315285 0.21371894 0.0043698158 143 30
-0.10480906 -0.085122958 0.21537164 0.0042532776 146 31
-0.1052573 -0.086374931 0.21815854 0.0045341789 151 32
-0.10481488 -0.086914644 0.21915887 0.004567205 134 28
-0.10339942 -0.086650379 0.21815157 0.0040286393 159 33
-0.10224192 -0.08659894 0.2177027 0.0036730156 176 37
-0.10186731 -0.087216683 0.21895616 0.0037189017 177 37
-0.10136352 -0.087736145 0.21998176 0.0037578586 184 39
-0.10056461 -0.088008843 0.22040959 0.0036789279 199 42
-0.099456966 -0.088014439 0.22019155 0.003374194 199 42
-0.098930366 -0.088540174 0.22129799 0.0032302963 210 44
-0.098209374 -0.088901997 0.22201779 0.0037934377 205 43
-0.097193234 -0.089001924 0.22210811 0.003670838 202 42
-0.096333757 -0.089249335 0.22259177 0.0035165418 215 45
-0.095625065 -0.089643978 0.22346798 0.0031434589 221 47
-0.095052592 -0.090177335 0.22471549 0.0031152216 219 46
-0.094025366 -0.090286978 0.22493328 0.0031784782 226 48
-0.093090042 -0.090488665 0.22540702 0.0032325925 212 45
-0.092038132 -0.090580627 0.22563408 0.0032828036 221 47
-0.090816878 -0.090506144 0.225473 0.0031076847 225 47
-0.089298114 -0.090129465 0.224585 0.0028134345 255 54
-0.08879324 -0.090779632 0.22628152 0.0028082612 254 54
-0.088772096 -0.091947868 0.22929646 0.0032161986 225 47
-0.087130196 -0.091446117 0.22817217 0.0031713771 245 52
-0.085249715 -0.090677068 0.22640273 0.002876967 253 53
-0.08393494 -0.090496987 0.2261247 0.002719576 269 57
-0.0833515 -0.09111131 0.22785418 0.002824795 288 61
-0.082611293 -0.091569126 0.22921504 0.0025858285 291 61
-0.08171054 -0.091859482 0.2301778 0.0027096409 275 58
-0.08054278 -0.091853715 0.23041721 0.0027090865 269 57
-0.079280488 -0.091738395 0.23039807 0.0025897438 285 60
-0.078724131 -0.092448644 0.23246919 0.0026680552 281 59
-0.077459864 -0.092336468 0.2324878 0.0026317581 286 60
-0.075375877 -0.091228731 0.23000781 0.0025825039 289 61
-0.073976539 -0.09092804 0.22956826 0.0026041844 291 61
-0.072859392 -0.090970218 0.23000252 0.0024572765 314 66
-0.071454287 -0.09064842 0.22952308 0.0022928438 342 72
-0.070371926 -0.090732232 0.23007594 0.0025549203 290 61
-0.069609664 -0.091238394 0.2317069 0.0028619955 251 53
-0.068451568 -0.091234073 0.23204693 0.0034227464 197 41
-0.066988051 -0.090815522 0.23133418 0.0035127043 191 40
-0.065572493 -0.090448529 0.23075093 0.0035653529 206 43
-0.06401334 -0.089866869 0.22961655 0.0033212099 204 43
-0.062539265 -0.089385785 0.22873425 0.0031594087 221 47
-0.061404206 -0.089380451 0.22906581 0.0030816365 227 48
-0.059895858 -0.088821359 0.22797354 0.0031423881 223 47
-0.05869313 -0.088702746 0.22800608 0.0033779261 217 46
-0.057459608 -0.088532075 0.2278998 0.0031356902 223 47
-0.056327682 -0.088514246 0.22818197 0.0032207298 232 49
-0.055369344 -0.088774025 0.22917563 0.0031794242 216 45
-0.05463532 -0.089411654 0.23114261 0.0036572386 189 40
-0.053644389 -0.089646935 0.23206668 0.003594548 187 39
-0.052696779 -0.089966334 0.23320426 0.0040306579 184 39
-0.052452266 -0.091526717 0.23755839 0.0041266247 177 37
-0.051721305 -0.092289582 0.23984346 0.0042596129 163 34
-0.050830599 -0.092796087 0.24145925 0.0043885554 146 31
-0.049692556 -0.09286432 0.24192902 0.004599317 151 32
-0.048443224 -0.092722856 0.24184467 0.0031793844 242 51
-0.046825189 -0.09185113 0.23984493 0.0026163908 285 60
-0.04523224 -0.090985455 0.23784816 0.0023368846 334 71
-0.044266343 -0.091368847 0.23910753 0.0022361244 356 75
-0.043541476 -0.092283636 0.24175335 0.0022546779 348 74
-0.042237554 -0.091987789 0.24122155 0.0023106011 370 78
-0.040918883 -0.091642119 0.24054961 0.0021857892 373 79
-0.039890155 -0.09194459 0.24157105 0.0022378007 353 75
-0.038841922 -0.092218913 0.2425122 0.0022261534 360 76
-0.03762098 -0.092087507 0.24237897 0.0022725863 346 73
-0.036317572 -0.091739364 0.24166653 0.0022521031 347 73
-0.035036437 -0.09142635 0.24103764 0.0024348779 350 74
-0.034012873 -0.091787025 0.2421774 0.0022195487 362 76
-0.032919206 -0.091977373 0.24286146 0.0020814359 405 86
-0.031724844 -0.091889992 0.24280503 0.0022906631 388 82
-0.030564303 -0.091897644 0.24299225 0.0019734569 425 90
-0.029547065 -0.092353828 0.24435912 0.0021634575 405 86
-0.028390935 -0.092395589 0.24462315 0.0020807055 390 82
-0.027121224 -0.092055403 0.24386844 0.0021107115 388 82
-0.02592155 -0.091933079 0.24368322 0.0020635067 422 89
-0.024872584 -0.09235888 0.24494448 0.002117909 382 81
-0.023635207 -0.092092536 0.24436358 0.002023658 411 87
-0.022377027 -0.091713309 0.24347563 0.0021334372 385 81
-0.021143345 -0.091398492 0.24275117 0.0020413699 404 85
-0.019995665 -0.091440514 0.24296775 0.0022867064 391 83
-0.018828394 -0.091392592 0.24293891 0.0020868231 391 83
-0.017661195 -0.091338761 0.242888 0.0021050058 395 84
-0.016582867 -0.091769233 0.24411908 0.0019895385 425 90
-0.015443469 -0.091901131 0.24455021 0.0019766842 427 90
-0.014296846 -0.092008002 0.24490891 0.0019132405 452 96
-0.01305836 -0.091490209 0.24359846 0.0019768071 449 95
-0.011858885 -0.091171563 0.24281169 0.0019701086 470 99
-0.010742515 -0.091492027 0.24372111 0.0018916067 477 101
-0.009592358 -0.09156739 0.24397196 0.001907255 449 95
-0.0084004402 -0.09121003 0.24306397 0.0019587304 467 99
-0.0072425571 -0.091167241 0.24298832 0.0017982797 492 104
-0.0061337845 -0.09184356 0.24482377 0.0019852943 445 94
-0.0049325288 -0.091127589 0.24294209 0.0019258937 488 103
-0.0037861187 -0.091297075 0.2434153 0.0018855238 505 107
-0.0026437656 -0.091756292 0.24465536 0.0016484187 562 119
-0.0014687913 -0.090915851 0.24242444 0.0016349716 570 121
-0.0003172358 -0.090688229 0.24182183 0.0016838008 583 123
0.00083372148 -0.091024421 0.24271704 0.0017398712 513 109
0.0019885576 -0.091148309 0.2430405 0.0017063923 539 114
0.0031431383 -0.091173813 0.24309598 0.0016438274 560 119
0.0042917398 -0.091058761 0.2427711 0.0016549177 600 127
0.0054571605 -0.091273725 0.24332039 0.0016360271 567 120
0.0066165393 -0.091330171 0.24344133 0.001614122 590 125
0.0077759726 -0.091370478 0.24351352 0.0015015344 688 146
0.008921342 -0.091256499 0.24316877 0.0014624092 699 148
0.0100649 -0.091152221 0.24284418 0.0016102676 578 122
0.011216064 -0.091131203 0.24273571 0.0015490048 623 132
0.012389607 -0.091278993 0.24307093 0.0014914967 650 138
0.013550919 -0.091319121 0.24311338 0.0015031811 646 137
0.014658696 -0.091020539 0.24224833 0.0015179653 634 134
0.015776707 -0.090824388 0.24165027 0.0015121229 649 138
0.017046768 -0.091470771 0.24328738 0.0015558854 661 140
0.018188588 -0.09139055 0.24298526 0.0015030464 673 143
0.019361986 -0.091469124 0.24309903 0.001492695 686 145
0.020528713 -0.091509089 0.24310379 0.0014851432 660 140
0.021747023 -0.091762431 0.24366859 0.0015787819 650 138
0.022872476 -0.091618143 0.24317093 0.0016856875 595 126
0.0237386 -0.090499133 0.24008124 0.0016201959 608 129
0.024932269 -0.090674371 0.2404196 0.0015065072 661 140
0.026141021 -0.090886623 0.24084891 0.0015569649 622 132
0.027321933 -0.090988263 0.24097776 0.0016484741 611 129
0.028478261 -0.09100315 0.24086981 0.0015142699 648 137
0.029620459 -0.090973459 0.2406369 0.0015334103 632 134
0.030924255 -0.091423735 0.24166575 0.0017484158 514 109
0.032175943 -0.091693036 0.24220772 0.0016707984 551 117
0.033218984 -0.091369689 0.24117704 0.0016858211 539 114
0.034248613 -0.09103246 0.24010363 0.0016129337 580 123
0.035361893 -0.090932302 0.23964898 0.0017352713 555 118
0.036568545 -0.091070972 0.23981622 0.0017493359 554 117
0.037824206 -0.091319494 0.24026427 0.0018279753 522 111
0.038983345 -0.091327168 0.24007048 0.00177301 496 105
0.04027497 -0.091635838 0.2406594 0.0019953432 467 99
0.041533008 -0.091852918 0.24099876 0.0019127206 449 95
0.042853601 -0.092192784 0.24165103 0.0019587646 433 92
0.043960877 -0.092067868 0.24107669 0.0020081759 421 89
0.044804361 -0.091411196 0.23910427 0.002015088 411 87
0.046017632 -0.091523059 0.23913585 0.0019659495 427 90
0.047263108 -0.091691896 0.23930782 0.0022533794 391 83
0.048225705 -0.091317013 0.23805366 0.0021325017 373 79
0.049334846 -0.091230668 0.23754553 0.0021248844 391 83
0.050642371 -0.09150672 0.23797306 0.0022397942 388 82
0.051877853 -0.091643177 0.23802894 0.0021321012 377 80
0.052892558 -0.091392182 0.23707187 0.0021918053 366 77
0.054207556 -0.091659702 0.23745283 0.0022073113 357 75
0.055291045 -0.091532744 0.23680496 0.0024136745 358 76
0.056436375 -0.091511279 0.23642433 0.0025544113 323 68
0.057803169 -0.091842562 0.23694798 0.0024065047 315 66
0.05918131 -0.092178449 0.23747577 0.0025296798 325 69
0.060403861 -0.092263706 0.23735137 0.0023904291 322 68
0.060917035 -0.091282733 0.23448314 0.0022190872 361 76
0.061706688 -0.090744875 0.23275523 0.002221101 358 76
0.063227728 -0.091282569 0.23378319 0.0023552389 334 71
0.064686783 -0.091713093 0.23453069 0.0022618093 345 73
0.066041425 -0.091983005 0.23486349 0.0023987801 353 75
0.067053758 -0.09177506 0.23397551 0.0023786551 355 75
0.068051875 -0.091555074 0.23305917 0.0022758292 346 73
0.069058299 -0.091353431 0.23219293 0.0023071184 342 72
0.070768096 -0.092073575 0.23367055 0.0024442817 311 66
0.071940333 -0.092082299 0.23334408 0.0023572517 324 68
0.07297983 -0.091923557 0.23259932 0.0024272117 324 68
0.074165531 -0.091951065 0.23233324 0.0023245781 332 70
0.075148322 -0.091730051 0.23144816 0.0024504112 312 66
0.07601627 -0.091377698 0.23024352 0.0024816329 310 65
0.077375583 -0.091617718 0.23054311 0.002636252 290 61
0.078587428 -0.091678619 0.23040366 0.0025796853 287 61
0.079510942 -0.091406271 0.22944163 0.0028475218 272 57
0.080541633 -0.09126319 0.22882096 0.002735283 262 55
0.08188156 -0.091469593 0.22909348 0.002773355 282 59
0.083111927 -0.091549553 0.22906704 0.003039785 248 52
0.084064707 -0.091325782 0.22830075 0.0028252695 254 54
0.084705673 -0.090773895 0.22673689 0.0026796157 269 57
0.08580862 -0.090725243 0.22645326 0.0026857706 270 57
0.087399602 -0.091187067 0.2274662 0.0031417157 220 46
0.088560067 -0.09119352 0.22736657 0.0033365835 224 47
0.089883618 -0.091365583 0.22770451 0.0032178059 212 45
0.090517469 -0.090841122 0.22633237 0.0034522915 209 44
0.091169074 -0.090347402 0.22506337 0.0033247811 206 43
0.091615908 -0.08966551 0.22335218 0.0030973337 230 48
0.093077801 -0.089981586 0.22415341 0.0038787355 179 38
0.094201751 -0.089967281 0.22415823 0.0036080275 186 39
0.095030636 -0.089674875 0.22349656 0.0038945291 179 38
0.095647052 -0.089191243 0.22238423 0.0040533426 181 38
0.096578084 -0.08900886 0.22204848 0.0036274642 184 39
0.096696928 -0.088090777 0.21990164 0.0043820483 159 33
0.096870065 -0.087242506 0.21795145 0.0040681739 158 33
0.09751001 -0.086829066 0.21710983 0.0039374274 162 34
0.098901019 -0.087086156 0.21796894 0.0045100353 152 32
0.10019187 -0.087250367 0.21862063 0.0041505606 151 32
0.10129321 -0.087247759 0.21887822 0.0043998403 141 29
0.10185549 -0.086785905 0.21800521 0.0046059112 142 30
0.10391783 -0.087598406 0.22035703 0.0050285677 140 29
0.1035682 -0.086382017 0.21762532 0.0045079114 136 28
0.10400411 -0.085839368 0.21660529 0.0048359162 141 29
0.10566191 -0.086306021 0.21815223 0.0049242112 119 25
0.10546167 -0.085260972 0.21589525 0.0059295991 112 23
0.10527045 -0.084244296 0.21371967 0.0054295463 109 23
0.10603999 -0.084009185 0.213539 0.005675558 104 22
0.10784306 -0.084589414 0.21545026 0.0064918511 96 20
0.10546661 -0.081912152 0.20907012 0.0057930392 105 22
0.10512274 -0.080850273 0.20680843 0.0075340034 92 19
nan nan nan 0 98 20
nan nan nan 0 98 20
nan nan nan 0 136 28
-0.11135969 -0.074069694 0.19478625 0.0045032124 139 29
-0.1135415 -0.0761704 0.20099302 0.0055054729 122 25
-0.11193994 -0.075747415 0.20026669 0.0046690716 133 28
-0.11150934 -0.076116331 0.20137422 0.0050977184 133 28
-0.11032436 -0.075972281 0.20091648 0.0049339551 136 28
-0.10971041 -0.076222382 0.20134638 0.0050012739 120 25
-0.10934915 -0.076654129 0.20214678 0.0041995626 152 32
-0.10786015 -0.076295964 0.20079541 0.0043277023 167 35
-0.10760421 -0.07681147 0.20170212 0.0036796392 181 38
-0.10744958 -0.077409469 0.20279831 0.0039606672 163 34
-0.10743953 -0.078123748 0.20418379 0.0039398726 161 34
-0.10756762 -0.078952864 0.2058614 0.0045671733 155 32
-0.10650327 -0.078914188 0.20527864 0.0047103879 146 31
-0.10759027 -0.080484115 0.20888193 0.0044281068 155 32
-0.1078915 -0.081490941 0.21102192 0.0046620476 136 28
-0.10813879 -0.08247631 0.21310991 0.0049740253 125 26
-0.1078536 -0.083071031 0.21419597 0.0045948797 137 29
-0.10625932 -0.082659259 0.21270299 0.0046786033 132 28
-0.10589759 -0.083207645 0.213698 0.0045816144 136 28
-0.10571856 -0.083912224 0.21510653 0.0041270144 150 31
-0.106295 -0.085237071 0.21811517 0.004182952 165 35
-0.10620577 -0.086050123 0.2198249 0.0038752046 175 37
-0.10551818 -0.086390339 0.22034295 0.0040115924 175 37
-0.10445768 -0.086429216 0.22011277 0.0037890309 172 36
-0.10278126 -0.085953854 0.21859691 0.0033016589 207 44
-0.10192917 -0.086165026 0.21885091 0.0036941364 204 43
-0.10139846 -0.08665549 0.21983561 0.0037876014 191 40
-0.10042991 -0.086778492 0.21991056 0.0032816809 207 44
-0.099378429 -0.086831778 0.21983314 0.0033297748 202 42
-0.099017687 -0.087496646 0.22132774 0.0031725336 214 45
-0.098660029 -0.088179499 0.22289096 0.0035099075 197 41
-0.09763401 -0.088273898 0.22299176 0.0032213633 210 44
-0.096630663 -0.088391252 0.22317699 0.0033746555 205 43
-0.09589912 -0.088762976 0.22403099 0.003045466 226 48
-0.09487319 -0.088867873 0.22423832 0.0032689278 227 48
-0.094080038 -0.089196019 0.22503605 0.0030591122 228 48
-0.093122274 -0.089374237 0.22548275 0.0033156031 236 50
-0.092190638 -0.089582294 0.22603188 0.0029731372 239 50
-0.090344563 -0.088895828 0.2243505 0.0028641464 249 52
-0.08919289 -0.088883802 0.22439702 0.0026788348 271 57
-0.088564575 -0.08939977 0.22580275 0.0029436187 244 51
-0.087758258 -0.089747235 0.22680897 0.0029765526 259 55
-0.086473003 -0.089607626 0.2266088 0.0028531575 258 54
-0.085338071 -0.089622118 0.22682139 0.0026674969 271 57
-0.084554091 -0.090010621 0.22800356 0.0026458278 276 58
-0.083521634 -0.090141691 0.22855592 0.0027119853 280 59
-0.082628742 -0.090429179 0.2295257 0.0025203095 295 62
-0.081754968 -0.090746082 0.23059022 0.0024859994 307 65
-0.080762155 -0.090938091 0.23135594 0.0027958639 277 58
-0.079807363 -0.09117917 0.2322634 0.0025649329 290 61
-0.078494318 -0.091012023 0.23214525 0.0026925532 312 66
-0.077434868 -0.091138303 0.23278786 0.0026464325 281 59
-0.075158991 -0.089814834 0.22973414 0.0026300657 299 63
-0.073993184 -0.089797325 0.23002519 0.0026885045 307 65
-0.072742119 -0.08967419 0.23005284 0.0028145537 295 62
-0.071571857 -0.089648299 0.2303358 0.0024588513 305 64
-0.070377506 -0.0895909 0.23054233 0.0028058919 252 53
-0.069497928 -0.089938946 0.23179701 0.0033015588 206 43
-0.068003528 -0.089489669 0.23099871 0.0038105089 194 41
-0.066293187 -0.088735923 0.22941086 0.0036403274 207 44
-0.064487696 -0.087826289 0.22741337 0.0032919548 210 44
-0.063393079 -0.087869644 0.2278792 0.0031684474 220 46
-0.061973464 -0.087455943 0.22715642 0.0031437294 240 51
-0.060334895 -0.086712331 0.22556955 0.0028450747 252 53
-0.059566852 -0.087215379 0.22722135 0.0028843279 249 52
-0.058344331 -0.087059528 0.227154 0.0028779262 251 53
-0.057104934 -0.086871929 0.22699785 0.003038012 262 55
-0.05594635 -0.086802237 0.22714378 0.0028220918 260 55
-0.055317476 -0.087568268 0.22947364 0.0028935927 241 51
-0.05424821 -0.087654442 0.23001909 0.0030539189 228 48
-0.053122945 -0.087651856 0.23032558 0.003284625 213 45
-0.052179366 -0.087955423 0.23143095 0.0035525376 198 42
-0.051819008 -0.0892772 0.23521408 0.0036175337 198 42
-0.051400844 -0.090556853 0.2388878 0.0041183955 175 37
-0.050688218 -0.091364883 0.24131674 0.003802967 174 37
-0.049769826 -0.091831461 0.24284019 0.0041542132 152 32
-0.04842408 -0.091513045 0.24228039 0.0035637359 190 40
-0.04642725 -0.089917816 0.23832656 0.0025160254 299 63
-0.045231473 -0.089832291 0.2383613 0.0024665731 332 70
-0.044077475 -0.089827448 0.238602 0.0021141558 386 82
-0.043000057 -0.089982592 0.23926018 0.0022774702 379 80
-0.042061612 -0.090445131 0.24072948 0.0023223122 379 80
-0.040947068 -0.090544485 0.24122572 0.0023500011 357 75
-0.039886914 -0.090773426 0.24206017 0.0024260911 351 74
-0.038708922 -0.090739883 0.24218728 0.0023002692 341 72
-0.037364487 -0.090302013 0.2412264 0.0022752499 363 77
-0.036104172 -0.090045951 0.240742 0.0020775446 398 84
-0.035054352 -0.090315267 0.24165465 0.002166854 371 78
-0.033979431 -0.090536132 0.24243122 0.001976419 424 90
-0.032935787 -0.090858914 0.24347436 0.0020157353 414 88
-0.031663194 -0.090550594 0.24281901 0.0020437962 438 93
-0.030488923 -0.090510681 0.24287556 0.0020397655 453 96
-0.029438712 -0.09085048 0.24394439 0.0019286238 445 94
-0.028206345 -0.09063296 0.24350998 0.0019621698 468 99
-0.027048448 -0.090646334 0.24368857 0.0020712113 419 89
-0.026007107 -0.091069028 0.24496144 0.002049502 431 91
-0.024856752 -0.091131806 0.24526007 0.0018136295 489 103
-0.02363552 -0.090928093 0.24483463 0.0019705091 470 99
-0.022383103 -0.090577044 0.24400523 0.0018929967 471 100
-0.02116742 -0.090344369 0.24348748 0.0019806761 473 100
-0.019915061 -0.089919165 0.2424437 0.0017612012 510 108
-0.018775348 -0.089981571 0.24270803 0.0018740734 465 98
-0.017630013 -0.090023436 0.24291088 0.001876551 494 105
-0.01647271 -0.090005778 0.24294706 0.0017077231 525 111
-0.015373484 -0.090326697 0.24389133 0.0018097893 524 111
-0.014123217 -0.089740157 0.24237929 0.0017414247 542 115
-0.01312064 -0.090763003 0.24520844 0.001821531 511 108
-0.011898063 -0.090314955 0.24405839 0.0016700391 543 115
-0.010661627 -0.08965379 0.24232586 0.0015988366 602 128
-0.0095273508 -0.089795694 0.24275799 0.0016043178 589 125
-0.008372101 -0.089751743 0.24268213 0.0014615585 672 142
-0.0072525162 -0.090137072 0.24376144 0.0016008018 639 135
-0.006097171 -0.090139754 0.2438006 0.001562998 609 129
-0.0049307551 -0.089941777 0.24329139 0.0015136045 674 143
-0.0037735754 -0.089842848 0.24304451 0.0014589472 679 144
-0.0026234116 -0.089897409 0.24320728 0.0014656738 720 153
-0.0014689002 -0.089771762 0.24287705 0.001366484 756 160
-0.00031808682 -0.089780554 0.24290508 0.0013812063 758 161
0.00083337381 -0.089834809 0.24305065 0.0014043481 726 154
0.0019871101 -0.089929096 0.24329907 0.0014992199 704 149
0.0031325973 -0.089717887 0.24271552 0.0013493664 794 168
0.0042885384 -0.089839123 0.24302581 0.0013735745 763 162
0.0054499637 -0.089999586 0.24343666 0.0013980919 790 168
0.0066163819 -0.09017203 0.2438743 0.0013809355 790 168
0.0077273385 -0.089649737 0.24242757 0.0012288729 893 189
0.0088705402 -0.089588344 0.24222182 0.0013117783 849 180
0.010026435 -0.08965452 0.24235538 0.0014019028 757 160
0.011172417 -0.089627571 0.2422315 0.0013964697 782 166
0.012258381 -0.089169063 0.24093585 0.0012557027 890 189
0.01343315 -0.089379661 0.24144258 0.0012977107 825 175
0.014536268 -0.089117877 0.24066748 0.0012470497 954 202
0.015720349 -0.089354433 0.24123237 0.0012005814 928 197
0.016796971 -0.088989556 0.24016768 0.0012355091 893 189
0.018129056 -0.089938447 0.24264209 0.001175328 974 207
0.019257305 -0.089823075 0.24223836 0.0012575485 939 199
0.020476382 -0.090120487 0.24294145 0.001184498 1000 212
0.021651544 -0.090203166 0.24305899 0.0011295588 1046 222
0.022536093 -0.089128129 0.24005179 0.0011382324 1022 217
0.023688439 -0.089164838 0.24003379 0.0010894587 1138 242
0.02486846 -0.089297533 0.24026747 0.0011226565 1073 228
0.026041502 -0.089394614 0.24039839 0.001106458 1066 226
0.027183209 -0.089380458 0.24022338 0.0011182581 1062 225
0.028278654 -0.089221492 0.23965263 0.0011408099 1014 215
0.029492851 -0.089434996 0.24007541 0.0011682888 990 210
0.030938288 -0.090307504 0.24225822 0.0012897796 831 176
0.032023139 -0.090102486 0.24154222 0.0012282 903 192
0.033186413 -0.090124726 0.24142852 0.0013969408 773 164
0.03419647 -0.089743376 0.24022706 0.001326916 794 168
0.035365235 -0.089789815 0.24016397 0.0013805039 740 157
0.036586501 -0.0899624 0.24043038 0.0014523771 683 145
0.037732691 -0.08994548 0.24018237 0.0015025999 700 148
0.0388643 -0.089895837 0.23983948 0.0015809623 650 138
0.040070344 -0.090016261 0.23994246 0.0015734492 597 126
0.041403905 -0.090408392 0.24076059 0.0016093415 579 123
0.04263721 -0.090566203 0.24094549 0.0017346784 515 109
0.043747604 -0.090461515 0.24042396 0.0016296064 566 120
0.044860888 -0.09036804 0.23992482 0.0017222918 535 113
0.045910485 -0.090154201 0.23909909 0.0017014168 531 112
0.047204852 -0.090419732 0.23953663 0.0019110203 485 103
0.04814928 -0.090018287 0.23819984 0.0018244372 471 100
0.049160499 -0.089757584 0.23722969 0.0020351748 435 92
0.050573993 -0.090226494 0.23817956 0.0020979627 389 82
0.051794857 -0.090338446 0.23817769 0.00200313 410 87
0.053131491 -0.090643018 0.23867482 0.0020792477 401 85
0.05408426 -0.090293683 0.23744301 0.0021746065 366 77
0.055204064 -0.090232 0.23696208 0.0022178998 358 76
0.056320854 -0.090168051 0.2364689 0.0022564428 348 74
0.057446409 -0.09012039 0.2360125 0.0022002528 359 76
0.059158389 -0.090976447 0.23791382 0.0022072217 366 77
0.060347717 -0.091011204 0.23765829 0.0020908702 391 83
0.060604908 -0.089665532 0.23379806 0.0021120431 389 82
0.061757892 -0.089670613 0.23346062 0.0023561514 362 76
0.063108422 -0.089957096 0.23385081 0.0022180029 357 75
0.064965963 -0.090943046 0.2360512 0.0021836457 371 78
0.06602174 -0.090791665 0.2352939 0.0022473619 347 73
0.066489004 -0.089850247 0.2324921 0.0021898185 359 76
0.067812853 -0.090078704 0.23271988 0.0024293773 339 72
0.069189668 -0.090368718 0.23310512 0.0022203182 358 76
0.070197187 -0.090174764 0.23224342 0.0023107417 364 77
0.071502753 -0.090363771 0.23237091 0.0024004998 359 76
0.072580293 -0.090263158 0.23175757 0.0024176817 335 71
0.07349202 -0.089962751 0.23063834 0.0024059315 325 69
0.074666508 -0.089988291 0.23036277 0.0023132174 336 71
0.076082319 -0.090299472 0.23082562 0.0025120848 331 70
0.077266052 -0.09033002 0.23057984 0.0024793025 302 64
0.078484908 -0.090400107 0.23044616 0.0026705442 298 63
0.079601489 -0.090352081 0.23002434 0.0025857193 296 62
0.080533452 -0.090098873 0.22909574 0.0026265946 277 58
0.081822194 -0.090246335 0.2292024 0.0025322735 294 62
0.083049685 -0.090323091 0.22914642 0.0026564409 272 57
0.083778739 -0.089863084 0.22774875 0.0027465967 265 56
0.08453618 -0.089445584 0.22648123 0.0026317069 276 58
0.085735708 -0.089500785 0.22643292 0.0027621405 258 54
0.087016687 -0.089638427 0.22661546 0.0029158592 242 51
0.088405982 -0.08988259 0.22709036 0.0031286874 221 47
0.089383043 -0.089706749 0.22652867 0.0033062035 218 46
0.090356693 -0.089531995 0.2259956 0.0035398146 216 45
0.091068767 -0.089105688 0.22485411 0.0032905899 222 47
0.091850147 -0.088756919 0.22393528 0.0035691299 203 43
0.092829548 -0.088605694 0.22354177 0.003410652 196 41
0.094227903 -0.08885318 0.22418122 0.0039247931 187 39
0.095275834 -0.088768266 0.22400926 0.0034641002 196 41
0.095756255 -0.088162854 0.22255056 0.0034954583 198 42
0.096250355 -0.087584011 0.22118482 0.0040281098 179 38
0.096830688 -0.087096088 0.22007401 0.0038775909 167 35
0.097345158 -0.086560704 0.21886797 0.0039750901 167 35
0.097372375 -0.085609011 0.21663234 0.0040887077 161 34
0.098863803 -0.085951507 0.21769555 0.0038389158 167 35
0.10037753 -0.086305626 0.21881472 0.0045098653 157 33
0.10182714 -0.086597495 0.21980223 0.0039331643 167 35
0.10366832 -0.087212496 0.22163655 0.004432369 141 29
0.10334986 -0.086016901 0.21889105 0.0043555652 147 31
0.10359046 -0.085306965 0.21739736 0.0044559622 141 29
0.10340052 -0.084261 0.21506251 0.0049322243 133 28
0.10389869 -0.083791614 0.21421425 0.0046665678 132 28
0.10446407 -0.083385468 0.21354422 0.0056401487 120 25
0.10467611 -0.082708366 0.21219492 0.0058901538 110 23
0.10624464 -0.083105922 0.21362036 0.0052512605 111 23
0.10731108 -0.083106741 0.21404624 0.0060331915 111 23
0.108157 -0.082938425 0.21405324 0.0059372741 98 20
0.10690216 -0.081178151 0.20995779 0.0062854663 98 20
nan nan nan 0 100 21
nan nan nan 0 93 19
-0.11328941 -0.073758297 0.19619144 0.0046485811 130 27
-0.11478342 -0.075368218 0.20126118 0.0050544059 133 28
-0.11305308 -0.074870467 0.20042017 0.0045547378 137 29
-0.11190556 -0.074753404 0.20031926 0.0048494306 128 27
-0.11056279 -0.074502714 0.19963224 0.0043184562 143 30
-0.10964096 -0.074533768 0.19952795 0.0043516289 148 31
-0.10907167 -0.07480716 0.1999501 0.0041894633 154 32
-0.10955206 -0.075811863 0.20224112 0.0045041633 162 34
-0.10927615 -0.076306671 0.20311511 0.0038683189 169 35
-0.10897534 -0.076792978 0.20393448 0.0043447251 162 34
-0.10851833 -0.077177197 0.20446648 0.0040961499 157 33
-0.10884973 -0.078134507 0.20650765 0.0045558242 133 28
-0.10997053 -0.079681806 0.21009836 0.0047592241 127 27
-0.10985426 -0.08035364 0.2113772 0.0058269659 121 25
-0.10890174 -0.080420814 0.21107394 0.0050647142 125 26
-0.10900951 -0.081279874 0.21285853 0.0049263067 128 27
-0.10918728 -0.082208417 0.21483104 0.0045966702 134 28
-0.10896528 -0.08285135 0.21606584 0.0048366087 151 32
