# .PCD v0.7 - Point Cloud Data file format
VERSION 0.7
FIELDS x y z noise intensity gray
SIZE 4 4 4 4 2 1
TYPE F F F F U U
COUNT 1 1 1 1 1 1
WIDTH 923
HEIGHT 1
VIEWPOINT 0 0 0 1 0 0 0
POINTS 923
DATA ascii
-0.10949013 -0.074431241 0.19925347 0.0039754743 165 35
-0.10802583 -0.074089862 0.19803286 0.003918719 169 36
-0.10823695 -0.074901775 0.19981332 0.0042897509 165 35
-0.10903876 -0.076140903 0.20267385 0.0038283819 167 36
-0.10938159 -0.077079259 0.20469472 0.0044232314 150 32
-0.10909551 -0.077587679 0.20555398 0.0040141232 161 34
-0.10959463 -0.078669205 0.20792085 0.00416341 152 32
-0.10883768 -0.078860968 0.20793405 0.0045416872 136 29
-0.10909828 -0.079800673 0.20992258 0.0053685405 133 28
-0.10936175 -0.080760524 0.21196553 0.004912646 129 27
-0.10954895 -0.081682093 0.21391186 0.0048743766 128 27
-0.10990757 -0.082750723 0.21624823 0.0046591861 130 28
-0.10839421 -0.082417145 0.21493348 0.0045901733 155 33
-0.10752739 -0.082573384 0.21491514 0.0041092103 158 34
-0.10640115 -0.082531556 0.21439943 0.0043879366 162 34
-0.10509546 -0.082348257 0.21353672 0.0040210159 177 38
-0.10527773 -0.083339088 0.21573511 0.0035546049 193 41
-0.10519216 -0.08413627 0.21744531 0.0033549368 198 42
-0.10512027 -0.084961236 0.21924245 0.0035193246 192 41
-0.10426982 -0.085167795 0.21946231 0.0037200225 189 40
-0.10410045 -0.085941032 0.22116224 0.0033290007 204 44
-0.10269803 -0.085702047 0.2202795 0.0036856036 208 44
-0.10180661 -0.08588893 0.22051619 0.0035008462 197 42
-0.10034047 -0.085589729 0.21953022 0.0032141488 212 45
-0.099686831 -0.085984632 0.22035006 0.0030694287 226 48
-0.099137492 -0.08647947 0.22145028 0.0030561346 226 48
-0.098268338 -0.086703479 0.22188239 0.0030466253 230 49
-0.097117163 -0.086680949 0.22171037 0.003053945 229 49
-0.097114421 -0.08769495 0.22421589 0.0034660441 230 49
-0.096176885 -0.087878875 0.22462575 0.0028561931 247 53
-0.095024198 -0.087868251 0.22456618 0.002928508 238 51
-0.093527019 -0.087534972 0.22370982 0.0027770249 258 55
-0.092515491 -0.087653592 0.22403598 0.0029056864 242 52
-0.091674238 -0.08793851 0.22481473 0.0028390586 256 55
-0.090267174 -0.087681033 0.22423367 0.0029246905 274 59
-0.089274369 -0.087824501 0.22470421 0.0029704205 259 55
-0.08825238 -0.087942585 0.22513577 0.0027846752 256 55
-0.087416612 -0.088251799 0.22608206 0.0025229908 298 64
-0.086279124 -0.088260546 0.22628312 0.0026405533 305 65
-0.085242085 -0.088373676 0.2267748 0.0025635473 290 62
-0.084064327 -0.088342026 0.22691663 0.0028401737 270 58
-0.083062448 -0.088496886 0.22755815 0.0026368925 280 60
-0.08282467 -0.089481592 0.23035565 0.0024347925 311 67
-0.081076644 -0.088839479 0.2289836 0.0024922439 301 64
-0.079965398 -0.088886656 0.22940217 0.0024972223 302 65
-0.079115309 -0.089229755 0.23060016 0.0024882464 302 65
-0.07817807 -0.089483298 0.23158151 0.0026894549 307 66
-0.076755546 -0.089180648 0.23113443 0.0024520438 312 67
-0.074891649 -0.088348061 0.22931901 0.0023831136 324 69
-0.074087054 -0.088758625 0.23073672 0.0024762135 314 67
-0.073143624 -0.089013226 0.23175809 0.0024662362 326 70
-0.072265565 -0.089356825 0.23301867 0.0027062518 268 57
-0.070842341 -0.089026541 0.23252575 0.0033055323 208 44
-0.069302253 -0.088535994 0.23161317 0.0034419808 192 41
-0.067849785 -0.088142723 0.23095261 0.0036506746 206 44
-0.06648504 -0.087851867 0.23055753 0.002969132 237 51
-0.064918615 -0.08727973 0.22941975 0.003172765 225 48
-0.063293941 -0.086607523 0.22801191 0.0027512435 259 55
-0.062219389 -0.08667738 0.22855242 0.0027620548 272 58
-0.060721286 -0.08614891 0.22750992 0.0026688452 275 59
-0.059479028 -0.085970379 0.22738454 0.0027102609 275 59
-0.058204751 -0.085737854 0.22711 0.0025740112 297 64
-0.056883194 -0.08542525 0.22661594 0.0025655555 292 63
-0.055429012 -0.084897093 0.22554107 0.0025589417 288 62
-0.054657668 -0.085414581 0.22723801 0.0028010593 266 57
-0.054230046 -0.08650177 0.23045005 0.0027980839 257 55
-0.052986614 -0.086306117 0.230241 0.0030397461 234 50
-0.051881015 -0.086331397 0.23061356 0.0033530053 219 47
-0.05138487 -0.087394334 0.23375449 0.0031846694 218 47
-0.050627641 -0.088051192 0.23580761 0.0034427978 196 42
-0.049858481 -0.088717192 0.23788185 0.0037870905 182 39
-0.050016552 -0.091103621 0.24457109 0.0040607606 160 34
-0.048883792 -0.091197513 0.24510567 0.0039068325 191 41
-0.047173742 -0.090192325 0.24267533 0.002710605 289 62
-0.046112683 -0.09040837 0.24352035 0.0022055202 368 79
-0.044681735 -0.08989156 0.24238236 0.0021877519 399 86
-0.043217868 -0.089278996 0.24097499 0.0020935314 416 89
-0.042016577 -0.089190058 0.24097094 0.0021419364 403 87
-0.040835567 -0.089140341 0.24106458 0.0020514645 403 87
-0.039698187 -0.089185745 0.24140754 0.0020163939 410 88
-0.038624454 -0.089381166 0.24214931 0.0021617112 410 88
-0.037412807 -0.089259654 0.24202487 0.0019846167 422 91
-0.036189809 -0.08910244 0.24179533 0.0019746954 427 92
-0.035086021 -0.089238018 0.24235274 0.0019110396 450 97
-0.033830963 -0.088984974 0.24184699 0.0019048201 474 102
-0.032620281 -0.088834904 0.24161293 0.001907469 453 97
-0.031505339 -0.088944115 0.2420768 0.0017455164 512 110
-0.030479597 -0.089323036 0.2432684 0.0017451885 516 111
-0.029417619 -0.089621551 0.24423516 0.0018992376 479 103
-0.028183334 -0.089398094 0.24377269 0.0018443982 522 112
-0.027046386 -0.089477465 0.24412878 0.0016825621 543 117
-0.025904691 -0.08954753 0.24445301 0.0018273533 483 104
-0.024741715 -0.08954718 0.24457841 0.0016315361 616 133
-0.023473887 -0.089148581 0.24360906 0.0015260477 633 136
-0.02219715 -0.08867304 0.24242184 0.0015801231 605 130
-0.021055678 -0.088715382 0.24264356 0.001522566 643 138
-0.019943573 -0.088893518 0.2432308 0.0014921144 649 140
-0.018790066 -0.088897675 0.24333607 0.0015212718 644 139
-0.01759495 -0.08869262 0.24286239 0.0014713496 667 144
-0.016429914 -0.088621102 0.24274813 0.0014746051 709 153
-0.015308172 -0.088789925 0.24328642 0.0013970677 753 162
-0.014031393 -0.088013738 0.24122907 0.0013653921 761 164
-0.012894816 -0.088057324 0.24141233 0.0013122752 806 174
-0.011743615 -0.087999813 0.24131277 0.0013162718 804 173
-0.010580212 -0.087828606 0.2408957 0.0011663166 977 210
-0.0095270071 -0.088641331 0.24317221 0.0013297761 800 172
-0.0083698304 -0.088577129 0.24303789 0.0012307919 950 205
-0.0072228755 -0.088617876 0.24318603 0.0012049347 936 202
-0.0060775527 -0.088697888 0.24343653 0.0011989832 942 203
-0.0049300054 -0.08877527 0.24367446 0.0012019423 927 200
-0.0037990846 -0.089290641 0.24510939 0.0012105462 933 201
-0.0026271867 -0.088872656 0.24397682 0.0011538512 1003 216
-0.0014791153 -0.089237206 0.24498712 0.0011509235 1042 224
-0.0003196584 -0.089067481 0.24452536 0.0010743124 1128 243
0.00082594279 -0.087892391 0.24129806 0.0010341089 1203 255
0.0019899034 -0.088901035 0.24406064 0.0011423228 1019 220
0.0031649664 -0.089482911 0.2456461 0.0010905396 1112 240
0.0043227067 -0.089394026 0.24538475 0.0010720483 1141 246
0.0054743094 -0.089242712 0.24494672 0.0010085648 1260 255
0.0066212351 -0.089081354 0.24447575 0.0010919453 1106 238
0.0077477293 -0.088733986 0.24348904 0.0010588951 1154 249
0.0088669341 -0.08840391 0.24254461 0.0010630931 1152 248
0.0099984305 -0.088257983 0.24210015 0.0011181146 1061 229
0.011158851 -0.088371143 0.24236088 0.0011390917 1016 219
0.012265663 -0.088078238 0.24150249 0.0011154611 1066 230
0.013370731 -0.087823853 0.24074452 0.0010960066 1089 235
0.014479002 -0.087628834 0.24014394 0.0010831231 1138 245
0.015619993 -0.087645836 0.2401188 0.001050956 1176 253
0.016795356 -0.087840289 0.24057393 0.0010350853 1204 255
0.017923253 -0.087777555 0.24031866 0.0010294063 1268 255
0.019125454 -0.088064462 0.24101447 0.0010124011 1314 255
0.020288313 -0.088148057 0.24114753 0.00099683471 1358 255
0.021453971 -0.088234238 0.24128123 0.00093771017 1480 255
0.022570426 -0.088119566 0.2408596 0.00091537816 1560 255
0.023722658 -0.088148929 0.2408254 0.00093407533 1443 255
0.024895703 -0.088249348 0.24097879 0.00089988962 1540 255
0.025769603 -0.087327197 0.23833458 0.00088028662 1590 255
0.026912965 -0.087357439 0.23828439 0.00087657128 1609 255
0.0282354 -0.087942988 0.23974125 0.00095784006 1376 255
0.02945195 -0.088166043 0.24020183 0.00096194417 1434 255
0.030775908 -0.088681892 0.24145199 0.00095918908 1377 255
0.032033101 -0.088975087 0.24208732 0.0010772591 1186 255
0.032873865 -0.088131458 0.23962346 0.0010020401 1268 255
0.034029946 -0.088161483 0.23952936 0.0010955296 1148 247
0.035037488 -0.087817274 0.23841178 0.0010541594 1190 255
0.036343556 -0.088219382 0.23931284 0.0011655572 1027 221
0.037584282 -0.088443175 0.23972122 0.0012353503 890 192
0.038684793 -0.08833351 0.23921792 0.0013465284 835 180
0.039763965 -0.088182837 0.23859648 0.0013131718 821 177
0.040962927 -0.08829882 0.23868884 0.0014022945 740 159
0.042111605 -0.088303052 0.23847093 0.0014801661 700 151
0.043232094 -0.088249519 0.23808928 0.0014296577 704 152
0.044453934 -0.088400282 0.23825055 0.0016434534 597 128
0.045596432 -0.088389657 0.23796849 0.0015495374 627 135
0.046749596 -0.088399723 0.23773414 0.0017246268 523 112
0.04784954 -0.088311084 0.23722662 0.0016662691 551 118
0.048935745 -0.088201828 0.23665637 0.0018264892 512 110
0.049973678 -0.088012554 0.23586448 0.0017453709 511 110
0.051540017 -0.088741571 0.23752391 0.0019671768 436 94
0.052669711 -0.088703305 0.23711964 0.0019991831 416 89
0.053947724 -0.088911116 0.23736504 0.0021905291 397 85
0.054866277 -0.08853022 0.23603196 0.0019968837 418 90
0.055835929 -0.088245712 0.23495111 0.0020018474 414 89
0.05736402 -0.088837489 0.23619533 0.0021185726 385 83
0.058925785 -0.08945705 0.23750226 0.0020743557 399 86
0.060044758 -0.089393437 0.23698714 0.0022176821 406 87
0.060795225 -0.088794015 0.2350484 0.0020279514 412 88
0.061761189 -0.088525794 0.23398456 0.0022610265 395 85
0.062927686 -0.088549562 0.23368892 0.0021665511 376 81
0.064273722 -0.088820577 0.23404059 0.0022333839 369 79
0.065574437 -0.08902052 0.23419981 0.0022545331 369 79
0.066858135 -0.089190818 0.23427713 0.0023570333 363 78
0.067752756 -0.088845126 0.23299828 0.0023468549 363 78
0.068577155 -0.088420466 0.23151501 0.0022502488 393 84
0.069697276 -0.088384807 0.23105285 0.0021744685 394 85
0.071118377 -0.088725805 0.23157571 0.0021477074 373 80
0.072463572 -0.088962726 0.23182753 0.0021857806 360 77
0.07371746 -0.089081883 0.23177519 0.0022659411 340 73
0.074641034 -0.088804372 0.2306972 0.002290098 339 73
0.075869493 -0.088892512 0.23057699 0.0024613489 324 69
0.076902106 -0.088752002 0.22987255 0.0023109342 336 72
0.078215986 -0.088935442 0.2300172 0.0025319974 296 63
0.07911998 -0.088654257 0.22897238 0.0025353371 297 64
0.079963207 -0.088314049 0.22779053 0.002382366 324 69
0.081284925 -0.088504426 0.2279928 0.0025864693 287 61
0.082651339 -0.08873751 0.22832015 0.0027031468 268 57
0.083494291 -0.088409871 0.2272231 0.0025799347 288 62
0.084605724 -0.088371567 0.22689012 0.0027535353 279 60
0.085585602 -0.088198721 0.22623308 0.0032143199 239 51
0.086537369 -0.088001862 0.22553734 0.0029217582 240 51
0.08763539 -0.087956898 0.22525465 0.0031315081 224 48
0.088491708 -0.087673634 0.22438642 0.0032239698 210 45
0.089580886 -0.087625355 0.22414522 0.0030729207 233 50
0.090931095 -0.087830402 0.22457783 0.0030438052 234 50
0.092169806 -0.087924026 0.22475174 0.0031610746 214 46
0.093384974 -0.08799316 0.22489014 0.0036030207 200 43
0.094210371 -0.087697804 0.22412455 0.0036953937 190 41
0.095428102 -0.087770335 0.22432695 0.0033515692 199 42
0.09580408 -0.087076098 0.22259715 0.0035703254 189 40
0.096213438 -0.086428054 0.22101218 0.0039255633 184 39
0.096991576 -0.086122401 0.22032924 0.0040668081 165 35
0.098198354 -0.086199969 0.22065352 0.0038816729 168 36
0.099200428 -0.086098142 0.22054532 0.0038562273 180 38
0.10005299 -0.085870259 0.22013998 0.0036369017 180 38
0.10134499 -0.086020388 0.22072957 0.0041497187 161 34
0.10317723 -0.0866208 0.22250202 0.0041662748 153 33
0.10349598 -0.085951328 0.22103733 0.0044576456 138 29
0.102223 -0.083988354 0.21626221 0.0043457532 144 31
0.10303558 -0.083762273 0.21597549 0.0042912778 151 32
0.10462457 -0.084165484 0.21733466 0.0044574761 140 30
0.10558138 -0.084057078 0.21739592 0.0050476938 136 29
0.10523736 -0.082925849 0.21482791 0.0052707 123 26
0.10611132 -0.082767561 0.21479537 0.0055490471 107 23
0.10839498 -0.083701 0.21761955 0.0060087494 112 24
0.10906038 -0.08337871 0.21720117 0.0055137314 108 23
0.10853036 -0.082157828 0.21445258 0.0055869692 103 22
0.10834801 -0.081221342 0.21245244 0.0062338891 95 20
nan nan nan 0 92 19
nan nan nan 0 93 20
-0.11509848 -0.073962972 0.19986545 0.0048697912 126 27
-0.11091059 -0.071879543 0.19481319 0.0054686116 123 26
-0.10996002 -0.071876377 0.19510095 0.0046950057 137 29
-0.11024766 -0.072689533 0.19736312 0.0042122439 149 32
-0.11081325 -0.073701784 0.19997405 0.0037988701 171 36
-0.11025841 -0.073980145 0.20045194 0.0037661353 175 37
-0.10920922 -0.073928818 0.19994242 0.0039184238 164 35
-0.10946569 -0.074768364 0.20177996 0.0041533015 152 32
-0.11004618 -0.075846463 0.20421724 0.0038014925 170 36
-0.11008617 -0.076568343 0.20566893 0.0047764638 132 28
-0.10968906 -0.076996751 0.20632154 0.0050741932 132 28
-0.10988505 -0.077853352 0.20811765 0.0046414235 135 29
-0.10991135 -0.078604728 0.20963147 0.004770203 126 27
-0.10986655 -0.07931903 0.21104969 0.0047005191 133 28
-0.10965019 -0.079921983 0.21217823 0.0038299276 167 36
-0.10937291 -0.080491781 0.21322784 0.0046596602 163 35
-0.10836847 -0.080532365 0.21288908 0.0044147675 151 32
-0.10828222 -0.081262805 0.21438774 0.004512331 152 32
-0.10717251 -0.081232086 0.2138934 0.0035976444 184 39
-0.10652245 -0.08155264 0.21434203 0.0034237856 213 45
-0.10605859 -0.08202374 0.21520281 0.0039195349 193 41
-0.10583594 -0.082692973 0.21659929 0.0037954208 197 42
-0.10541775 -0.083221756 0.21764462 0.0036784201 193 41
-0.10449515 -0.083359234 0.21768647 0.0032750429 204 44
-0.1046496 -0.084367953 0.22002269 0.0036686268 198 42
-0.10367542 -0.084478647 0.22003721 0.0032669976 209 45
-0.1031943 -0.084997855 0.2211387 0.0037728201 194 41
-0.10176277 -0.084737055 0.22023559 0.0035055678 190 41
-0.10137963 -0.085353114 0.22163674 0.0033054049 221 47
-0.10013643 -0.085250787 0.22119792 0.0034217101 226 48
-0.099348664 -0.085538246 0.22179729 0.0030145976 233 50
-0.098804437 -0.086044401 0.22299011 0.0029636796 239 51
-0.098469675 -0.086746797 0.224718 0.0030323842 233 50
-0.09719415 -0.086627193 0.22434434 0.0027686011 260 56
-0.095780008 -0.086379729 0.22366822 0.0028160911 253 54
-0.095019743 -0.086723112 0.22455041 0.0028487714 269 58
-0.094078504 -0.08690767 0.22504972 0.0029055162 246 53
-0.092520155 -0.086519673 0.22409423 0.0028903771 259 55
-0.091472611 -0.086605638 0.22439384 0.0027062448 268 57
-0.089717574 -0.086015478 0.22296794 0.0025581371 288 62
-0.088687293 -0.086113952 0.2233526 0.0027545011 268 57
-0.088231832 -0.086780347 0.22523694 0.0026337041 290 62
-0.087454818 -0.087143816 0.22636139 0.0027613551 295 63
-0.086661048 -0.087500006 0.22749199 0.002525266 315 68
-0.085312605 -0.0872982 0.22719447 0.0024576604 310 66
-0.084133938 -0.087267011 0.22736111 0.0026727733 300 64
-0.083149709 -0.087439418 0.22807808 0.002394486 318 68
-0.082826853 -0.088321894 0.23066856 0.0023979982 316 68
-0.081398241 -0.088033609 0.23021965 0.0024141991 316 68
-0.079901382 -0.087662123 0.22956565 0.0024322048 332 71
-0.078910597 -0.08784312 0.23037083 0.0025365765 323 69
-0.07783784 -0.087936878 0.23095967 0.0026188323 320 69
-0.07599961 -0.087155633 0.22925745 0.0023508328 340 73
-0.075014479 -0.08734376 0.23011091 0.0026095232 318 68
-0.073823668 -0.087294541 0.23034623 0.0023309782 329 71
-0.072920807 -0.087589629 0.23149635 0.0026698641 305 65
-0.071473986 -0.087230332 0.23092037 0.0029858872 229 49
-0.070457853 -0.087393515 0.23172909 0.0035084453 204 44
-0.069050848 -0.087069236 0.2312458 0.003139345 216 46
-0.067657456 -0.086751483 0.23077704 0.0029942426 238 51
-0.066194385 -0.086331934 0.23003331 0.0028305848 254 54
-0.064319737 -0.085351586 0.22778733 0.0031892289 257 55
-0.063029572 -0.085125782 0.22754702 0.0029231396 273 58
-0.061643817 -0.084760353 0.22692749 0.0026823559 295 63
-0.060283657 -0.084417328 0.22636066 0.0028240262 288 62
-0.058925379 -0.084064096 0.22575867 0.0024295712 316 68
-0.057884008 -0.084158108 0.22635138 0.0026007809 312 67
-0.056557301 -0.083832838 0.2258096 0.0025143605 304 65
-0.055526264 -0.083941624 0.22642981 0.0026973733 299 64
-0.054673258 -0.084329419 0.22779799 0.002630621 277 59
-0.053902499 -0.084862746 0.22955585 0.0029792276 258 55
-0.052987155 -0.085186206 0.23074192 0.0030734658 252 54
-0.052055959 -0.08549761 0.23189022 0.0030749401 256 55
-0.051358633 -0.086215369 0.23413655 0.0031192354 236 50
-0.050644804 -0.086937211 0.23639107 0.0031378425 224 48
-0.049699172 -0.087285303 0.23762496 0.0037095298 195 42
-0.049198549 -0.088449925 0.24107845 0.0043606409 172 37
-0.0486711 -0.089621559 0.24455024 0.0036395609 181 39
-0.04749753 -0.089632094 0.24484906 0.0025961893 283 61
-0.04579388 -0.088617377 0.2423359 0.0021681727 368 79
-0.044414282 -0.088193126 0.24142502 0.0019796898 445 96
-0.043261129 -0.088207804 0.24170639 0.0017850767 496 107
-0.042109903 -0.088227347 0.24199307 0.0018222382 485 104
-0.040782854 -0.087869175 0.24123482 0.0017434722 516 111
-0.039598025 -0.087805465 0.241276 0.0017225409 538 116
-0.038395587 -0.087697692 0.24118793 0.0016211454 574 123
-0.037326723 -0.087897792 0.24193899 0.0017085049 534 115
-0.036043111 -0.087588847 0.24128105 0.0017242335 519 112
-0.034871981 -0.087541826 0.24133635 0.001608421 580 125
-0.033892568 -0.087989345 0.24274839 0.0016313106 574 123
-0.032604538 -0.087638974 0.24195211 0.0016491826 590 127
-0.031632494 -0.088143386 0.24350877 0.001489637 664 143
-0.030474016 -0.088146925 0.24367557 0.0014789344 664 143
-0.029295484 -0.088090442 0.24366932 0.0014663744 673 145
-0.028072987 -0.087891668 0.2432622 0.0014311657 708 152
-0.026855806 -0.087693177 0.24284847 0.0014547114 686 148
-0.025851071 -0.088201694 0.24438651 0.0014498042 687 148
-0.024648784 -0.088052318 0.24409564 0.0014011979 758 163
-0.023437131 -0.087853104 0.24365973 0.0013512693 797 172
-0.02223427 -0.087667875 0.24325582 0.001321338 827 178
-0.021047214 -0.087528102 0.24297142 0.0012755754 906 195
-0.01994448 -0.087743111 0.24366584 0.0012918921 895 193
-0.018793896 -0.087761119 0.24380739 0.0013359943 799 172
-0.017593972 -0.087535977 0.24326737 0.0012849641 847 182
-0.016395513 -0.087287098 0.24265511 0.0011638917 991 213
-0.015216635 -0.087112829 0.24224415 0.0010734993 1143 246
-0.014150405 -0.087607607 0.24368824 0.0011434035 1022 220
-0.012935106 -0.08718536 0.24257606 0.0010728943 1186 255
-0.011799097 -0.087267369 0.24286112 0.0010537964 1174 253
-0.010740707 -0.088003054 0.24496025 0.0010598786 1165 251
-0.0095313275 -0.087529898 0.24368933 0.0010152983 1264 255
-0.0083773453 -0.087505355 0.24366175 0.00095086946 1455 255
-0.0072233588 -0.087472923 0.24360685 0.00090801495 1501 255
-0.0060429517 -0.087047614 0.24245234 0.00088820414 1623 255
-0.004973053 -0.088387504 0.24620943 0.00094709313 1409 255
nan nan nan 0 1694 255
nan nan nan 0 1845 255
nan nan nan 0 1886 255
nan nan nan 0 1779 255
nan nan nan 0 1707 255
nan nan nan 0 1774 255
nan nan nan 0 1818 255
0.0043307976 -0.088398285 0.24625102 0.00092317112 1535 255
0.0054782345 -0.088146947 0.24552879 0.00088808627 1670 255
nan nan nan 0 1890 255
0.0077706096 -0.087840311 0.24461478 0.00088215229 1586 255
0.008899048 -0.087571889 0.24382944 0.00088461209 1587 255
0.010031044 -0.087395996 0.24329665 0.0009159458 1502 255
0.011153552 -0.087182112 0.24265286 0.00088218827 1643 255
0.012297341 -0.087158956 0.24253467 0.00090480392 1527 255
0.01341587 -0.086975992 0.24196643 0.0009100631 1506 255
0.014503195 -0.086635388 0.24095446 0.00087887119 1605 255
0.015680084 -0.086840458 0.24145466 0.0008536214 1692 255
nan nan nan 0 1683 255
0.018072166 -0.087357484 0.24273393 0.00091418257 1558 255
nan nan nan 0 1731 255
nan nan nan 0 1745 255
nan nan nan 0 1847 255
nan nan nan 0 1817 255
nan nan nan 0 1898 255
nan nan nan 0 1993 255
nan nan nan 0 1911 255
nan nan nan 0 1920 255
nan nan nan 0 1922 255
nan nan nan 0 1957 255
nan nan nan 0 1904 255
nan nan nan 0 1882 255
0.032877948 -0.086997777 0.24010715 0.00084192056 1728 255
0.033904448 -0.086695708 0.23910178 0.00084605924 1717 255
0.035129875 -0.086905412 0.23950073 0.00093828602 1498 255
0.036356386 -0.087104492 0.2398621 0.00095805828 1377 255
0.037556689 -0.087230541 0.2400142 0.0010182393 1307 255
0.038673967 -0.087162003 0.23962308 0.0010519862 1212 255
0.039779797 -0.087072335 0.23916665 0.00106879 1134 244
0.04074841 -0.08669576 0.2379154 0.0010950316 1097 236
0.041934285 -0.086789332 0.23794726 0.0011250384 1115 240
0.042977385 -0.086590305 0.23716918 0.0011641517 997 215
0.044395428 -0.087137468 0.23842604 0.0012827561 837 180
0.045426399 -0.086916476 0.23757209 0.0013267687 792 171
0.046554349 -0.086887352 0.23723514 0.001454643 684 147
0.047878951 -0.087217838 0.23787107 0.0015351542 625 134
0.048878815 -0.086955145 0.23688088 0.0015360619 633 136
0.050088752 -0.087069638 0.23691061 0.0016683895 543 117
0.051327623 -0.087228194 0.23705126 0.0016562237 551 118
0.052710298 -0.08761885 0.2378128 0.0018035154 516 111
0.05386984 -0.087629803 0.23753448 0.0018647056 465 100
0.054806355 -0.087285109 0.23628554 0.0018879807 484 104
0.055818327 -0.087072283 0.23538804 0.0019210472 476 102
0.05710363 -0.087285817 0.2356358 0.0019660657 473 102
0.058612332 -0.087825656 0.23675458 0.0018656924 462 99
0.059801735 -0.087875448 0.23654327 0.0018857369 457 98
0.060919356 -0.087819867 0.23604193 0.0019757561 418 90
0.061865751 -0.087524109 0.23489062 0.0020300504 404 87
0.063052326 -0.087572746 0.23465922 0.0021609468 371 80
0.064229421 -0.087606713 0.23438333 0.0021121702 384 82
0.065604053 -0.08790417 0.23480688 0.0021468617 410 88
0.066627815 -0.087729298 0.23396493 0.00224511 395 85
0.067478374 -0.087336235 0.23254104 0.0022418837 392 84
0.068295322 -0.086913563 0.23104016 0.0020518997 409 88
0.069636308 -0.087160707 0.23132007 0.0021107427 384 82
0.071112834 -0.087566771 0.23201941 0.0022012363 357 77
0.072378144 -0.087703921 0.23200563 0.0021726876 365 78
0.073312722 -0.087442324 0.23094057 0.0022734618 369 79
0.074761376 -0.087792449 0.23149522 0.0023960802 330 71
0.075864844 -0.087732747 0.23097374 0.0024272422 345 74
0.077052236 -0.087770462 0.23071615 0.0022957537 337 72
0.078092992 -0.087642483 0.23003229 0.0023174735 335 72
0.08032608 -0.088836871 0.23282561 0.0026954431 291 62
0.080236278 -0.087464854 0.22890565 0.002335015 331 71
0.08115425 -0.087214656 0.22794138 0.002439633 313 67
0.082357042 -0.08727327 0.22780024 0.0027003582 272 58
0.083602257 -0.087374605 0.22778708 0.0026456378 277 59
0.08537332 -0.088015303 0.22919641 0.0026098765 280 60
0.085927501 -0.087401122 0.22735794 0.0029753803 272 58
0.086634286 -0.086956322 0.22598436 0.0027622632 262 56
0.087964974 -0.087141179 0.22627059 0.0029899268 257 55
0.089547418 -0.087567464 0.22720638 0.0031009084 229 49
0.090655319 -0.087524764 0.22694974 0.0029752217 236 50
0.091379382 -0.087117195 0.22577374 0.0034523425 224 48
0.09236519 -0.086966187 0.22529009 0.0030758355 223 48
0.093185306 -0.086664766 0.22444454 0.0031488503 214 46
0.094697729 -0.08700671 0.22529311 0.0035203421 196 42
0.095533796 -0.086726494 0.22455876 0.0035275149 201 43
0.096258432 -0.086352915 0.22361104 0.0038810179 184 39
0.096945666 -0.08595489 0.22262812 0.003453139 194 41
0.09796685 -0.085858725 0.22245489 0.0037880731 186 40
0.098776236 -0.08558125 0.22183961 0.0038442891 169 36
0.099577211 -0.085302837 0.22124884 0.0038266233 176 38
0.099932671 -0.084653206 0.21972099 0.0042735441 163 35
0.10085468 -0.084492542 0.2194874 0.0041186316 160 34
0.10328976 -0.085589163 0.2225485 0.0042195101 152 32
0.1042957 -0.085490681 0.22253059 0.004205287 149 32
0.10291743 -0.083460808 0.21750422 0.0041842428 151 32
0.10338569 -0.082955442 0.21646713 0.004129611 153 33
0.10554053 -0.083799779 0.21897691 0.0046305512 139 30
0.10586166 -0.083185747 0.21769957 0.0050066481 127 27
0.10498663 -0.081653938 0.21403383 0.0055600572 123 26
0.10604027 -0.081638023 0.21435629 0.0054265866 107 23
0.1089498 -0.0830369 0.21842064 0.0055883466 105 22
0.1091134 -0.082335949 0.21698499 0.0063983421 100 21
0.10867298 -0.08119747 0.2144063 0.0061650556 97 20
0.10955148 -0.081057034 0.21447477 0.0070480723 95 20
nan nan nan 0 92 19
nan nan nan 0 99 21
-0.10910203 -0.069187187 0.18984617 0.004458338 139 30
-0.11201629 -0.071640983 0.19697906 0.0042768959 144 31
-0.11111487 -0.071675651 0.19721025 0.0039550755 158 34
-0.11052065 -0.071910776 0.19778056 0.0041916827 163 35
-0.11113238 -0.072941557 0.20037879 0.0041053314 156 33
-0.11200267 -0.074161746 0.20337933 0.0044184113 144 31
-0.11164149 -0.074580982 0.2041049 0.0050415481 137 29
-0.1133672 -0.076414421 0.20864595 0.0047742375 130 28
-0.11160312 -0.075907513 0.20676786 0.0047384002 131 28
-0.11093537 -0.076143816 0.20690925 0.0051236032 133 28
-0.1101722 -0.076318391 0.20688258 0.0044429782 137 29
-0.11027078 -0.077098735 0.2084998 0.0045541408 149 32
-0.10983048 -0.077513449 0.20913219 0.0038268704 169 36
-0.11028292 -0.078572072 0.21150686 0.0042934548 168 36
-0.10968847 -0.078897998 0.21191643 0.0038648832 168 36
-0.10880254 -0.079018533 0.21178864 0.0038089664 170 36
-0.10846729 -0.079545267 0.21276374 0.0037804802 174 37
-0.10826379 -0.080179989 0.2140401 0.0036426787 178 38
-0.10801428 -0.080792949 0.21527153 0.0041128448 177 38
-0.1073509 -0.081105568 0.21571846 0.0034941579 192 41
-0.10668521 -0.081422783 0.21619582 0.0034547397 197 42
-0.10616146 -0.081855983 0.21699968 0.0034567993 214 46
-0.10508487 -0.081867471 0.21670644 0.003594799 205 44
-0.10485587 -0.082546465 0.21820094 0.0036443295 193 41
-0.10399368 -0.082736082 0.21842287 0.0035055894 193 41
-0.10342242 -0.083163731 0.21929613 0.0033201901 233 50
-0.10261479 -0.083408505 0.21971086 0.0033262523 203 43
-0.10259598 -0.084306858 0.22187062 0.0036625944 200 43
-0.1020292 -0.08476983 0.2229085 0.0032167998 227 49
-0.10110705 -0.084944606 0.22321497 0.0034102001 233 50
-0.099813238 -0.084807552 0.22273007 0.00292861 245 52
-0.099128336 -0.085190661 0.22363959 0.0029115477 244 52
-0.098737165 -0.08583802 0.22527055 0.0029260225 242 52
-0.097406812 -0.085674487 0.22480224 0.0028919212 246 53
-0.09557201 -0.085058115 0.22317499 0.0028100896 257 55
-0.094789043 -0.085374318 0.22402355 0.0027189672 268 57
-0.093922652 -0.085622147 0.22472154 0.0025395949 292 63
-0.093077041 -0.085895248 0.22551449 0.0027752218 289 62
-0.091516383 -0.085507065 0.22459887 0.0026847953 289 62
-0.090015121 -0.085165285 0.22383118 0.002411454 317 68
-0.0887964 -0.085085504 0.22377737 0.0024015249 324 69
-0.088346094 -0.085749485 0.225706 0.00262183 314 67
-0.087702453 -0.086240776 0.22720669 0.0027097866 290 62
-0.086285681 -0.085974753 0.22673559 0.0023972082 317 68
-0.085402302 -0.08624021 0.22768767 0.002357943 352 76
-0.084308937 -0.086297974 0.22811235 0.0024969126 347 74
-0.083908446 -0.087076351 0.23046313 0.0022688864 342 73
-0.082883224 -0.087219171 0.23115189 0.0023676592 332 71
-0.081460074 -0.086941354 0.23074064 0.0023514929 348 75
-0.079890601 -0.086497076 0.22989832 0.0021795449 362 78
-0.078480378 -0.086214744 0.22949542 0.0024141078 338 72
-0.076952644 -0.085793011 0.22872859 0.0022135277 357 77
-0.076198727 -0.086234264 0.23027101 0.0022606775 353 76
-0.075214207 -0.086424083 0.23115154 0.0021974801 359 77
-0.074414022 -0.086834908 0.23263118 0.0023019267 329 71
-0.072610885 -0.086069845 0.23096286 0.0028425104 288 62
-0.071189307 -0.085739784 0.23045942 0.0030746285 234 50
-0.069770955 -0.085402876 0.22993587 0.0031616969 226 48
-0.068529397 -0.085274793 0.22997244 0.0030421542 234 50
-0.067050792 -0.084842451 0.22918493 0.0028512983 254 54
-0.065157384 -0.083861373 0.22690676 0.0028388263 269 58
-0.063867874 -0.083636887 0.22666749 0.0028161763 266 57
-0.062755071 -0.083639927 0.22704016 0.0026514924 291 62
-0.061353788 -0.08325164 0.22634451 0.0028530248 290 62
-0.059833147 -0.082684092 0.22515243 0.002729835 299 64
-0.058576014 -0.082466215 0.22490367 0.0022951567 342 73
-0.057243377 -0.082131676 0.22432852 0.0022745279 345 74
-0.056356885 -0.082436696 0.22549361 0.0023523895 343 74
-0.055685613 -0.08307492 0.2275672 0.0025181784 337 72
-0.054639261 -0.083168142 0.22814362 0.0024165309 319 68
-0.05365606 -0.083363339 0.22899349 0.002513913 297 64
-0.052970137 -0.084038414 0.23115727 0.0028538685 251 54
-0.052004769 -0.084289752 0.23215106 0.0026503971 277 59
-0.05099415 -0.084477231 0.23296261 0.0028195572 256 55
-0.050207354 -0.085052334 0.23483765 0.0032675099 239 51
-0.049684223 -0.086110994 0.23804516 0.0032174492 215 46
-0.048659325 -0.086329512 0.23892613 0.0037308445 177 38
-0.048327535 -0.087818108 0.24331909 0.003802764 172 37
-0.047123328 -0.087755941 0.24341136 0.002759865 258 55
-0.045579098 -0.087041281 0.24168313 0.0021383634 375 80
-0.044370878 -0.086947724 0.24166882 0.0018101545 491 106
-0.043258917 -0.087042801 0.2421706 0.0016275388 573 123
-0.042088509 -0.087022305 0.24234286 0.0017027793 558 120
-0.040778954 -0.086704791 0.2416791 0.0015611912 615 132
-0.039429482 -0.086281404 0.24071045 0.0014947152 655 141
-0.038401928 -0.086558156 0.24168685 0.0014163061 715 154
-0.037281882 -0.086637124 0.24210414 0.0016451039 603 130
-0.035877567 -0.086039439 0.24062179 0.0014463327 685 147
-0.034737431 -0.086056709 0.24085063 0.0014741531 728 157
-0.033693697 -0.086322173 0.24176729 0.0014385728 703 151
-0.032557141 -0.086360171 0.24204026 0.001326722 791 170
-0.031370729 -0.086263873 0.24192965 0.0012384852 893 192
-0.030523514 -0.087128468 0.2445083 0.0013911944 796 171
-0.029182568 -0.08659637 0.24316107 0.0012670989 862 186
-0.027889136 -0.086167239 0.24209464 0.0012746102 887 191
-0.026683027 -0.085982628 0.24170764 0.0012185326 917 197
-0.025520921 -0.08592961 0.24168372 0.0011341141 1043 225
-0.02446994 -0.086263344 0.24274158 0.0011331969 1039 224
-0.023478644 -0.086850777 0.24450833 0.001148454 1049 226
-0.022200316 -0.086382322 0.24329643 0.0010126967 1250 255
-0.021076441 -0.08649645 0.24371886 0.0010134621 1251 255
-0.019916805 -0.086468548 0.24373516 0.00096918823 1360 255
-0.01869496 -0.08615052 0.24292755 0.00094245368 1437 255
-0.017537868 -0.086108796 0.24289285 0.00094547006 1402 255
-0.016373714 -0.086024158 0.2427313 0.00093152036 1516 255
-0.015227042 -0.086025499 0.24280667 0.00086059858 1693 255
-0.014118998 -0.086263068 0.24354348 0.00087864173 1643 255
-0.013024441 -0.086632483 0.24464752 0.00086187234 1703 255
nan nan nan 0 1859 255
nan nan nan 0 1930 255
nan nan nan 0 1913 255
nan nan nan 0 1931 255
nan nan nan 0 1883 255
nan nan nan 0 1891 255
nan nan nan 0 1896 255
nan nan nan 0 1997 255
nan nan nan 0 2058 255
nan nan nan 0 2068 255
nan nan nan 0 2079 255
nan nan nan 0 1996 255
nan nan nan 0 2031 255
nan nan nan 0 1999 255
nan nan nan 0 2008 255
nan nan nan 0 1903 255
nan nan nan 0 1940 255
nan nan nan 0 2009 255
nan nan nan 0 1977 255
nan nan nan 0 1967 255
nan nan nan 0 1998 255
nan nan nan 0 1938 255
nan nan nan 0 1932 255
nan nan nan 0 1954 255
nan nan nan 0 2010 255
nan nan nan 0 2009 255
nan nan nan 0 1946 255
nan nan nan 0 2037 255
nan nan nan 0 2046 255
nan nan nan 0 2033 255
nan nan nan 0 1993 255
nan nan nan 0 2027 255
nan nan nan 0 2125 255
nan nan nan 0 2114 255
nan nan nan 0 2138 255
nan nan nan 0 2210 255
nan nan nan 0 2239 255
nan nan nan 0 2044 255
nan nan nan 0 2034 255
nan nan nan 0 2009 255
nan nan nan 0 1964 255
nan nan nan 0 1966 255
nan nan nan 0 1893 255
nan nan nan 0 1770 255
nan nan nan 0 1757 255
0.039399613 -0.085105516 0.23733754 0.00085972255 1741 255
nan nan nan 0 1769 255
0.041872464 -0.085521191 0.23806271 0.00093181536 1503 255
0.043095309 -0.085685506 0.23829076 0.0009978225 1340 255
0.044133928 -0.08548449 0.23749487 0.0010220129 1282 255
0.045501631 -0.085914969 0.23844464 0.0010680202 1134 244
0.046705734 -0.086022995 0.23848969 0.0011683003 971 209
0.047807485 -0.085941844 0.23800196 0.0012960433 859 185
0.04902428 -0.086066447 0.23807561 0.0013721052 750 161
0.050148733 -0.086026952 0.2376868 0.0014223754 717 154
0.051390991 -0.086186811 0.23784004 0.0015162489 645 139
0.052689012 -0.086431131 0.2382168 0.0015669577 606 130
0.053799793 -0.086364418 0.23772749 0.0016043778 590 127
0.054739196 -0.086031161 0.23649785 0.0016674778 547 118
0.055808403 -0.085911408 0.23584889 0.001665545 556 120
0.056910746 -0.085846439 0.23534332 0.0017211006 521 112
0.058075119 -0.085875764 0.23508887 0.0016705414 552 119
0.059590768 -0.086413354 0.23621635 0.0018286261 477 102
0.060867872 -0.086591184 0.23635066 0.0018261581 476 102
0.062044334 -0.086621873 0.23607598 0.0019960126 465 100
0.063210875 -0.086637862 0.23575495 0.0019086837 442 95
0.064267546 -0.086505391 0.23502487 0.0019374706 431 93
0.065391988 -0.086467192 0.2345468 0.001893047 450 97
0.066377513 -0.086249821 0.23357955 0.0020456591 397 85
0.067180328 -0.085806482 0.23199974 0.0020628641 419 90
0.06834954 -0.085838124 0.23170348 0.0020655037 417 90
0.069854528 -0.086283475 0.23252015 0.0020701669 414 89
0.070963979 -0.086233765 0.23200032 0.0020442638 397 85
0.072078198 -0.086191326 0.23150103 0.0023025358 364 78
0.073054045 -0.085987352 0.23057076 0.0021156829 379 81
0.07417386 -0.085956514 0.23010881 0.0023596562 359 77
0.075713724 -0.086406 0.23093535 0.0022974738 343 74
0.076875873 -0.086417414 0.23059507 0.0022899229 340 73
0.078224279 -0.086634763 0.23081093 0.0023073081 334 72
0.079661094 -0.08694227 0.23127396 0.0024692588 326 70
0.080780931 -0.086899988 0.2308163 0.0024565712 311 67
0.082138106 -0.087110579 0.23104234 0.0026314235 296 63
0.082684658 -0.086467616 0.22902034 0.0025691513 286 61
0.083969943 -0.086604238 0.22908099 0.0026856833 273 58
0.085351035 -0.086834617 0.22940598 0.0026676266 273 58
0.086582415 -0.086908557 0.22933605 0.0026117321 281 60
0.087168686 -0.086341575 0.22759707 0.0029463028 268 57
0.088100486 -0.086127132 0.22681169 0.0026418047 276 59
0.090100564 -0.08694914 0.2287779 0.0030020396 246 53
0.091017395 -0.086718179 0.22799708 0.0030697645 248 53
0.091668427 -0.086242937 0.22660124 0.0029916109 241 52
0.092187442 -0.085656822 0.22494246 0.0030261821 235 50
0.092845023 -0.085212208 0.22368394 0.0034093689 211 45
0.093662418 -0.084923252 0.2228626 0.0031557672 215 46
0.095111221 -0.085206859 0.22357216 0.0035889705 217 46
0.096158653 -0.085128441 0.2233604 0.0033991663 196 42
0.097253561 -0.085093386 0.22329134 0.003543017 213 45
0.098383173 -0.085089155 0.22333205 0.0035899323 188 40
0.099286333 -0.084891401 0.22289351 0.0036355243 183 39
0.098903261 -0.083610758 0.21963848 0.0035187991 190 41
0.099771976 -0.083405092 0.21923332 0.0038991277 163 35
0.10090036 -0.083418652 0.21943156 0.0038806801 171 36
0.10284715 -0.084101133 0.2214181 0.0039688414 162 34
0.10360629 -0.083808213 0.22086421 0.0047471672 148 31
0.10364928 -0.082948402 0.2188393 0.0041632312 155 33
0.10486572 -0.083035931 0.21933679 0.0040856535 156 33
0.10620105 -0.083214775 0.22010112 0.0044482509 136 29
0.10630046 -0.08243154 0.21834247 0.0044339658 147 31
0.10504264 -0.080622613 0.21387993 0.0050551416 118 25
0.10499687 -0.079771183 0.21196835 0.0053159078 112 24
0.10781036 -0.081087381 0.21584012 0.0056270799 110 23
0.10840447 -0.080724746 0.21526828 0.0065715094 103 22
0.10847174 -0.079980776 0.21369396 0.0057982625 102 22
0.10898761 -0.079578839 0.2130467 0.0060213855 107 23
0.1100715 -0.079595402 0.21353607 0.0056851548 104 22
nan nan nan 0 89 19
-0.11112023 -0.069527544 0.19363886 0.0038150947 170 36
-0.1135544 -0.071656436 0.19979934 0.0038126637 167 36
-0.1129078 -0.07186117 0.20036368 0.0048446278 141 30
-0.11127014 -0.071433194 0.19898416 0.0048271874 124 26
-0.1116401 -0.072297864 0.20107691 0.0049089445 125 26
-0.11397821 -0.074463636 0.20668946 0.0050878813 129 27
-0.11458908 -0.075529493 0.20917925 0.004999198 135 29
-0.11394476 -0.075779743 0.20937461 0.0044917958 138 29
-0.11360025 -0.076235734 0.2101227 0.0040555638 151 32
-0.11225276 -0.0760208 0.20901972 0.0036003068 182 39
-0.11180721 -0.076418385 0.20960627 0.0043747006 169 36
-0.11085419 -0.076473303 0.20926076 0.0036462003 177 38
-0.11059322 -0.077011146 0.21024652 0.0037429242 179 38
-0.11025904 -0.077507742 0.21112864 0.0035713592 190 41
-0.10990397 -0.077999033 0.21200714 0.0037990524 189 40
-0.10873213 -0.077914566 0.21133593 0.0035519414 188 40
-0.10821369 -0.078301243 0.21195957 0.0036616984 181 39
-0.10936105 -0.079912797 0.21590784 0.0034487392 198 42
-0.10932326 -0.080681823 0.21758805 0.0035252774 188 40
-0.10849443 -0.080876671 0.21773645 0.0037847012 185 39
-0.10711737 -0.08066266 0.21680629 0.0033193007 206 44
-0.10570908 -0.080420487 0.21582516 0.0036601922 200 43
-0.10512301 -0.080805294 0.21654956 0.003268667 207 44
-0.10474364 -0.081358738 0.21774673 0.0032180601 212 45
-0.10427093 -0.08185064 0.21880068 0.0031683263 217 46
-0.10358781 -0.08218617 0.21945992 0.0033028119 201 43
-0.10243006 -0.082148314 0.21914777 0.0035916909 210 45
-0.10093318 -0.081834674 0.21812783 0.0029676452 237 51
-0.10159218 -0.083281383 0.22182555 0.0028954998 250 53
-0.10102503 -0.083744094 0.22292724 0.0030678855 235 50
-0.10004682 -0.083872691 0.22316763 0.002859042 253 54
-0.099293016 -0.084194511 0.22395101 0.0029061304 264 57
-0.098705038 -0.084666036 0.22516157 0.0028062176 258 55
-0.096903831 -0.084095739 0.22363113 0.003093391 256 55
-0.095376857 -0.083752722 0.22273459 0.0026657684 278 60
-0.094390482 -0.08388187 0.22312288 0.0027007659 282 60
-0.093924291 -0.084482081 0.22479349 0.002829772 289 62
-0.093273424 -0.084928885 0.22608545 0.0025496364 299 64
-0.092665441 -0.085426345 0.22754146 0.0025554167 291 62
-0.090807013 -0.084769063 0.22594844 0.0025013518 322 69
-0.089654356 -0.084762245 0.22611395 0.0023852263 319 68
-0.088744141 -0.084987432 0.22692369 0.0024634546 316 68
-0.087844536 -0.085228823 0.22780155 0.0025017997 302 65
-0.085735597 -0.08428771 0.22553882 0.0024634455 338 72
-0.084779285 -0.084469669 0.22629942 0.0022017013 358 77
-0.084237479 -0.085075229 0.22821657 0.0023113431 350 75
-0.08386454 -0.085870467 0.23066479 0.0021669308 364 78
-0.082939677 -0.086114943 0.23165329 0.0022473882 348 75
-0.081330284 -0.085645534 0.2307345 0.0023560417 368 79
-0.079767659 -0.085212536 0.22992234 0.0021305683 384 82
-0.078391142 -0.084968574 0.22962786 0.0020760461 402 86
-0.077172667 -0.0848912 0.22979082 0.0022872754 380 82
-0.076316886 -0.085216492 0.23105197 0.002163474 373 80
-0.07505928 -0.085096203 0.23111132 0.0021087332 389 83
-0.074229814 -0.085465103 0.23250446 0.0022534314 351 75
-0.07308767 -0.085479952 0.23293871 0.0025049539 297 64
-0.071116902 -0.084510624 0.2306879 0.0029866809 231 49
-0.0696887 -0.08416491 0.23013328 0.0029135754 239 51
-0.068243533 -0.083786897 0.22948594 0.0027948762 257 55
-0.066638917 -0.08319708 0.22825186 0.00277564 263 56
-0.064728998 -0.082199305 0.22588834 0.0026247229 289 62
-0.063742228 -0.08235947 0.22669932 0.0027458265 298 64
-0.062753111 -0.082522228 0.22751439 0.0025543815 290 62
-0.061306827 -0.082078815 0.2266518 0.0024510673 309 66
-0.059611466 -0.081279457 0.22479519 0.0024226399 316 68
-0.058019027 -0.08059305 0.22323853 0.0022884663 342 73
-0.05712378 -0.080867358 0.2243347 0.0022568258 348 75
-0.056226689 -0.081149712 0.22544865 0.0023762283 342 73
-0.055383097 -0.08152204 0.22680804 0.0022914342 342 73
-0.054335799 -0.081603564 0.2273526 0.0023009616 335 72
-0.053307984 -0.081718318 0.22798285 0.0022802218 337 72
-0.052457232 -0.082115099 0.22939399 0.002381441 328 70
-0.051417008 -0.082226016 0.23000041 0.0025849419 293 63
-0.050389029 -0.082361862 0.23066935 0.0025616414 291 62
-0.049765278 -0.083179474 0.23324277 0.0026406106 277 59
-0.049075339 -0.083921693 0.23560177 0.0031304124 236 50
-0.049296748 -0.086294346 0.24253975 0.0037969868 186 40
-0.048266124 -0.086537175 0.24349146 0.0037859755 172 37
-0.04669011 -0.085789926 0.2416473 0.0028147493 263 56
-0.045454688 -0.085646398 0.2414926 0.0022514802 379 81
-0.044363201 -0.085773654 0.242093 0.0016822213 546 117
-0.043204065 -0.085773423 0.24232565 0.0014687835 675 145
-0.04201233 -0.085706688 0.24236213 0.0013869795 739 159
-0.04067022 -0.085320704 0.24148656 0.0013881886 739 159
-0.039390475 -0.085046828 0.24091877 0.0014243671 706 152
-0.038095616 -0.084722891 0.2402 0.0012462614 881 190
-0.036948409 -0.084717438 0.24037571 0.0013029875 878 189
-0.035714496 -0.084506474 0.23996039 0.0011940697 948 204
-0.034521013 -0.084380381 0.23977795 0.0012345501 924 199
-0.033694252 -0.08517269 0.24219947 0.001194955 949 204
-0.032472603 -0.084987529 0.24183545 0.0010623693 1151 248
-0.031379305 -0.085137039 0.24241665 0.0010708089 1140 246
-0.030035386 -0.084592067 0.2410128 0.0009901108 1325 255
-0.029086128 -0.085159481 0.24277158 0.00098632369 1310 255
-0.027854703 -0.08491347 0.24220541 0.0011026611 1111 239
-0.026606768 -0.084593825 0.24142179 0.00099143619 1330 255
-0.025454618 -0.084563695 0.24145755 0.00094285083 1423 255
-0.02436677 -0.084754385 0.24211781 0.00094981596 1455 255
-0.023314539 -0.085093893 0.24319777 0.00094127352 1451 255
-0.022486258 -0.08632841 0.24683152 0.00095413852 1395 255
nan nan nan 0 1791 255
-0.019895829 -0.085225858 0.24386968 0.00085813133 1671 255
nan nan nan 0 1853 255
nan nan nan 0 1869 255
nan nan nan 0 1902 255
nan nan nan 0 2009 255
nan nan nan 0 1923 255
nan nan nan 0 1948 255
nan nan nan 0 2014 255
nan nan nan 0 2045 255
nan nan nan 0 2124 255
nan nan nan 0 2032 255
nan nan nan 0 2114 255
nan nan nan 0 2151 255
nan nan nan 0 2135 255
nan nan nan 0 2101 255
nan nan nan 0 2151 255
nan nan nan 0 2197 255
nan nan nan 0 2160 255
nan nan nan 0 2077 255
nan nan nan 0 2094 255
nan nan nan 0 2096 255
nan nan nan 0 2069 255
nan nan nan 0 2028 255
nan nan nan 0 2062 255
nan nan nan 0 2112 255
nan nan nan 0 2104 255
nan nan nan 0 2060 255
nan nan nan 0 2072 255
nan nan nan 0 2135 255
nan nan nan 0 1999 255
nan nan nan 0 2075 255
nan nan nan 0 1974 255
nan nan nan 0 2153 255
nan nan nan 0 2130 255
nan nan nan 0 2111 255
nan nan nan 0 2156 255
nan nan nan 0 2099 255
nan nan nan 0 2136 255
nan nan nan 0 2308 255
nan nan nan 0 2332 255
nan nan nan 0 2506 255
nan nan nan 0 2310 255
nan nan nan 0 2437 255
nan nan nan 0 2468 255
nan nan nan 0 2373 255
nan nan nan 0 2308 255
nan nan nan 0 2523 255
nan nan nan 0 2346 255
nan nan nan 0 2077 255
nan nan nan 0 2063 255
nan nan nan 0 2021 255
nan nan nan 0 1967 255
nan nan nan 0 1948 255
nan nan nan 0 1942 255
nan nan nan 0 1881 255
0.043405347 -0.085151337 0.24046554 0.00089548499 1616 255
0.044467293 -0.084981881 0.23975219 0.00094550446 1472 255
0.045614872 -0.08498048 0.23950523 0.00097310793 1350 255
0.046798535 -0.085044742 0.23943481 0.00099751656 1304 255
0.047937896 -0.085027337 0.23912592 0.0010798704 1120 241
0.049088694 -0.085030556 0.23886672 0.0011397791 1051 226
0.050306823 -0.085147582 0.23891835 0.0012054372 942 203
0.05148996 -0.085201487 0.23878379 0.0014207856 752 162
0.052535303 -0.085030019 0.23800963 0.0014238508 753 162
0.053636897 -0.08495497 0.23749776 0.0013822578 742 160
0.054676585 -0.084787071 0.23671888 0.0014633643 679 146
0.055794552 -0.084744945 0.2362837 0.0015021319 651 140
0.056937054 -0.084741056 0.23594722 0.0015173309 639 137
0.0582004 -0.084913619 0.23609346 0.001542657 624 134
0.05941138 -0.085004583 0.23600419 0.0015818945 614 132
0.060543612 -0.084981568 0.23559076 0.001631317 573 123
0.061889209 -0.085253313 0.23598635 0.0017398194 534 115
0.06319648 -0.085463308 0.23620233 0.0019475842 463 99
0.064237572 -0.085312262 0.23541397 0.0017639406 500 107
0.065200649 -0.085064754 0.23435551 0.0018314871 470 101
0.06592299 -0.084517173 0.23246883 0.0017918354 503 108
0.066697747 -0.084054306 0.23081546 0.0017669619 511 110
0.068624139 -0.085033953 0.23311733 0.0018987387 451 97
0.069426589 -0.08461158 0.23157042 0.0020493597 433 93
0.070989609 -0.085114792 0.23255466 0.0020703564 397 85
0.072049573 -0.085008413 0.23187089 0.0020749166 394 85
0.072778262 -0.08452066 0.23015015 0.0021561312 385 83
0.074032679 -0.084649086 0.23011079 0.0021970796 356 76
0.075183995 -0.08465752 0.22974779 0.0021986761 359 77
0.076595999 -0.084954835 0.23017205 0.0022377444 372 80
0.077959016 -0.085189842 0.23043121 0.002198735 359 77
0.079357564 -0.085456274 0.230781 0.0022860703 337 72
0.080808885 -0.085771076 0.23126848 0.0024851772 303 65
0.081959635 -0.085762449 0.23089384 0.0025811421 303 65
0.08280395 -0.085437894 0.22968295 0.002558718 289 62
0.083727136 -0.085202523 0.22872874 0.002649589 295 63
0.084974125 -0.085298561 0.22868119 0.0026496195 287 61
0.086141735 -0.085313424 0.22843382 0.0028842899 276 59
0.086614169 -0.084648505 0.22638804 0.0026181915 279 60
0.088608466 -0.085468836 0.22833557 0.0028597291 257 55
0.089445159 -0.085165851 0.22730337 0.0029637683 238 51
0.089914016 -0.084524773 0.22539541 0.0031890506 242 52
0.091385275 -0.084830269 0.22603771 0.00279992 256 55
0.092086114 -0.08442191 0.22480445 0.0028017047 256 55
0.092738427 -0.083979607 0.22350936 0.0031404339 227 49
0.093790151 -0.083905295 0.22322229 0.0030990816 223 48
0.095198698 -0.084148176 0.22380753 0.0032255512 229 49
0.095908187 -0.083774693 0.22278243 0.0034535937 216 46
0.096639454 -0.083428733 0.22185995 0.003274298 210 45
0.097839475 -0.083490759 0.22205165 0.0034169885 205 44
0.0986766 -0.083245225 0.22145462 0.0033573227 203 43
0.099374115 -0.082888775 0.22059114 0.0035969769 198 42
0.09954951 -0.082109608 0.21863009 0.0040574535 179 38
0.10096391 -0.082358316 0.21943353 0.0035338849 185 39
0.10224208 -0.082491674 0.21995831 0.0039486336 161 34
0.10299186 -0.082200445 0.21937799 0.0046613025 151 32
0.10409535 -0.082194716 0.21958581 0.0042015556 156 33
0.10502385 -0.082052417 0.2194546 0.0040868134 156 33
0.10552365 -0.081581637 0.21846849 0.0041471836 158 34
0.10564625 -0.080831982 0.21675606 0.004699199 135 29
0.10503827 -0.079544418 0.21361731 0.0050451327 127 27
0.1057666 -0.079284661 0.21325536 0.0050425334 122 26
0.10676284 -0.079228923 0.21346298 0.0050769113 120 25
0.10822082 -0.079513542 0.21461004 0.0055614896 110 23
0.10805917 -0.078614287 0.2125793 0.0060113855 104 22
0.10821903 -0.077964157 0.21123409 0.0056298375 105 22
0.10994977 -0.078447357 0.21297774 0.0057271966 101 21
nan nan nan 0 97 20
-0.11750214 -0.072527222 0.20493963 0.0047375141 135 29
-0.11608481 -0.07226336 0.20427212 0.0052964697 120 25
-0.11548504 -0.072508268 0.20483349 0.0054486478 118 25
-0.11338476 -0.071807139 0.20257406 0.0054271603 125 26
-0.11303493 -0.072212018 0.20333587 0.004873225 131 28
-0.11489142 -0.074045993 0.2080465 0.0046515684 142 30
-0.11481296 -0.074654475 0.20926353 0.0039799623 162 34
-0.11431126 -0.074996203 0.20971036 0.003711774 176 38
-0.11361642 -0.075216293 0.20980977 0.0041037286 175 37
-0.11336772 -0.075738445 0.2107514 0.0039364975 180 38
-0.11271203 -0.07599584 0.21096081 0.0037596531 171 36
-0.11215438 -0.076324761 0.21137795 0.0040176362 157 33
-0.11096836 -0.076228209 0.21063033 0.0037809608 172 37
-0.11049756 -0.076625809 0.21126279 0.0036005231 186 40
-0.11023474 -0.077176638 0.21232966 0.0034207634 195 42
-0.10959597 -0.077472374 0.21270841 0.0037875287 197 42
-0.10932463 -0.078036174 0.21383788 0.0034319134 196 42
-0.11064681 -0.079759799 0.21815397 0.0039829612 184 39
-0.1096817 -0.079852566 0.21802168 0.0035681636 218 47
-0.10870341 -0.079937495 0.21788941 0.0032873498 208 44
-0.10736542 -0.079756968 0.21705692 0.0032519116 211 45
-0.10533952 -0.079056442 0.21483651 0.0031618839 216 46
-0.1051867 -0.079761706 0.2164607 0.002949608 239 51
-0.1057195 -0.081007123 0.2195691 0.0031284823 222 47
-0.10473678 -0.081105374 0.21958981 0.0030380865 232 50
-0.10368346 -0.081150487 0.21949308 0.0030548833 233 50
-0.10270825 -0.081258364 0.21959321 0.002913543 240 51
-0.10181277 -0.081432387 0.21989952 0.0028143425 256 55
-0.10163724 -0.082192473 0.22181539 0.0028118829 275 59
-0.1007643 -0.082399286 0.22226591 0.0027591505 275 59
-0.10032788 -0.082971774 0.22373161 0.0026278435 282 60
-0.099701807 -0.083398767 0.22483422 0.0027762221 276 59
