# .PCD v0.7 - Point Cloud Data file format
VERSION 0.7
FIELDS x y z noise intensity gray
SIZE 4 4 4 4 2 1
TYPE F F F F U U
COUNT 1 1 1 1 1 1
WIDTH 851
HEIGHT 1
VIEWPOINT 0 0 0 1 0 0 0
POINTS 851
DATA ascii
0.087770291 -0.076652497 0.22817791 0.0022927003 360 77
0.088909201 -0.076648131 0.22778952 0.0023463066 340 72
0.090224862 -0.076794304 0.22786498 0.0024170799 312 66
0.091251336 -0.076693773 0.22722726 0.0024249793 313 67
0.092193231 -0.076525517 0.2264113 0.0026900209 312 66
0.093449242 -0.076618932 0.22639294 0.0029040768 269 57
0.094479688 -0.076527365 0.22585303 0.0030797482 251 53
0.095438704 -0.076380834 0.22517835 0.0027923435 260 55
0.096076347 -0.075983584 0.22379437 0.002747617 257 55
0.097321637 -0.076070584 0.22386689 0.0029506017 238 51
0.09819787 -0.075870425 0.2231252 0.0031738868 215 46
0.09825445 -0.075048767 0.22058895 0.0030344208 231 49
0.098879673 -0.074675076 0.21940306 0.0032099218 216 46
0.1003715 -0.074956879 0.22017567 0.0032259736 212 45
0.1018154 -0.075197071 0.2208585 0.0039686323 189 40
0.10327996 -0.075447127 0.22160333 0.0033524099 204 43
0.10408513 -0.075215295 0.22096576 0.0033557578 200 42
0.10464447 -0.074812658 0.21985872 0.0037432197 178 38
0.10533063 -0.074508242 0.21907189 0.0036796879 177 37
0.10635502 -0.074446917 0.21903098 0.0036670987 177 37
0.10702029 -0.074138105 0.21829236 0.0042410446 158 33
0.10811342 -0.074128971 0.21846579 0.0041744765 160 34
0.10896732 -0.073957637 0.21819042 0.0044789584 149 31
0.10984007 -0.073802419 0.21799035 0.0042927358 155 33
0.11024443 -0.073338702 0.21690476 0.0048372839 134 28
0.11138543 -0.073369309 0.21730652 0.0048399726 129 27
0.11151882 -0.072742075 0.21578324 0.0050341305 134 28
0.11212458 -0.072432093 0.21522166 0.0050047277 122 26
0.11050524 -0.070704348 0.21046087 0.0049756481 124 26
-0.12120921 -0.06764181 0.21058428 0.0039759399 159 34
-0.11688709 -0.065786026 0.20433545 0.0035136177 187 40
-0.11703951 -0.066438317 0.20585282 0.0039491267 178 38
-0.11701377 -0.066999912 0.20706645 0.0040606684 159 34
-0.11650334 -0.067291401 0.20743752 0.0039933287 173 37
-0.11676241 -0.0680364 0.20920531 0.0037502486 174 37
-0.11641572 -0.06843856 0.20992173 0.0035364931 188 40
-0.11598246 -0.068796597 0.21051177 0.0040884553 178 38
-0.11509207 -0.068887517 0.21029788 0.00333674 199 42
-0.11495961 -0.069437906 0.21150029 0.0034401796 198 42
-0.11566191 -0.070507325 0.21429214 0.0033954731 198 42
-0.11455902 -0.070485994 0.21378249 0.0034653684 212 45
-0.11349363 -0.070487544 0.21336387 0.0032954514 204 43
-0.11329064 -0.07102982 0.21460126 0.0032510124 223 47
-0.11192203 -0.07084468 0.21366227 0.0032084819 211 45
-0.11130675 -0.071137428 0.2141882 0.0031809907 235 50
-0.11139049 -0.071887009 0.2161099 0.0032119923 229 49
-0.11125493 -0.072508462 0.2176667 0.0028953052 246 52
-0.11003608 -0.072429255 0.21714529 0.0033300812 228 48
-0.10837836 -0.072056688 0.21577427 0.002916248 242 51
-0.10744666 -0.072164133 0.21587069 0.002880733 267 57
-0.1069047 -0.072538249 0.21679328 0.0029303941 271 58
-0.10634943 -0.072910994 0.21774071 0.0026675265 274 58
-0.10572287 -0.073242188 0.21859404 0.0027537881 294 63
-0.10488942 -0.07343556 0.21906747 0.0025378647 292 62
-0.10416155 -0.073707789 0.21980838 0.0026687952 270 57
-0.10335009 -0.073926136 0.22042143 0.0026180597 296 63
-0.10364027 -0.074945875 0.22345728 0.0026937267 292 62
-0.10200551 -0.074580818 0.222398 0.0024397939 313 67
-0.10105246 -0.074711584 0.22285081 0.0026826898 299 64
-0.10053822 -0.075173415 0.22432511 0.0022799112 340 72
-0.099730998 -0.075424261 0.22520375 0.0020264115 410 88
-0.098802976 -0.075588502 0.22585681 0.0022378319 351 75
-0.09788245 -0.075762391 0.22657071 0.0022728958 344 73
-0.096825831 -0.075833827 0.22700889 0.0022442315 363 77
-0.095365763 -0.075587206 0.22652307 0.0021230723 373 80
-0.094111085 -0.075499356 0.22653887 0.0021303082 378 81
-0.092587903 -0.075191282 0.22591738 0.0020973475 415 89
-0.092077874 -0.075708583 0.22779986 0.00223158 401 86
-0.09102612 -0.075787902 0.22838835 0.0022806756 376 80
-0.089191087 -0.075208753 0.22700925 0.002039626 407 87
-0.088923723 -0.075953633 0.22964425 0.0020247439 406 87
-0.087819509 -0.075993873 0.23016773 0.0020761415 390 83
-0.08690843 -0.076204538 0.23122132 0.002061313 426 91
-0.085832439 -0.07627432 0.23185945 0.0020365219 405 86
-0.084099859 -0.075754583 0.23071156 0.0020103429 448 96
-0.082491934 -0.075334303 0.22986749 0.0019313032 438 94
-0.081420876 -0.075399376 0.23050691 0.0018978459 468 100
-0.081018299 -0.076094165 0.23307875 0.0019371444 432 92
-0.079633504 -0.075873174 0.23284949 0.0018423786 492 105
-0.078271896 -0.075668134 0.23266625 0.0018335038 520 111
-0.077510282 -0.076045655 0.23427372 0.0017100327 526 112
-0.076121323 -0.075809777 0.2339893 0.0018059555 504 108
-0.07470382 -0.075537808 0.23358656 0.001743013 512 109
-0.07355842 -0.07553681 0.23401514 0.0015464724 619 132
-0.071533926 -0.074618772 0.2315916 0.0011487 1006 215
-0.070773959 -0.075011492 0.23322672 0.002034531 404 86
-0.070234783 -0.075654864 0.23563956 0.0025805158 309 66
-0.06911476 -0.075683519 0.23613364 0.0029169719 246 52
-0.067162082 -0.07478597 0.23372497 0.0030684709 259 55
-0.065163933 -0.073806122 0.23104082 0.002503749 320 68
-0.063532494 -0.073214665 0.22955571 0.002329689 358 76
-0.06166289 -0.072322823 0.22711246 0.0021461553 384 82
-0.060414109 -0.072140045 0.22688161 0.0020110512 419 89
-0.059398428 -0.072234012 0.22751151 0.0019478352 432 92
-0.058125839 -0.072013222 0.22714023 0.0017299844 543 116
-0.057048932 -0.072031051 0.22751138 0.0015170008 645 138
-0.055259794 -0.071132749 0.2249759 0.0012262773 895 192
-0.054579236 -0.071654111 0.22691959 0.0011818798 1008 216
-0.053632624 -0.071840271 0.22779551 0.0013375297 782 167
-0.052424017 -0.071675926 0.22755101 0.0017974994 488 104
-0.051701374 -0.07218311 0.2294306 0.0020524822 404 86
-0.050700299 -0.072315075 0.23011096 0.0020585249 434 93
-0.049977042 -0.072857887 0.23209219 0.0022202653 391 83
-0.048848607 -0.072821192 0.23222029 0.0020975997 389 83
-0.048117217 -0.073388375 0.23426716 0.0022504434 349 74
-0.047447763 -0.074079096 0.23670383 0.0027195127 298 63
-0.047110174 -0.075333968 0.24094053 0.0032395972 247 53
-0.047046497 -0.077100031 0.24681269 0.0038036201 173 37
-0.046093963 -0.077462286 0.24818854 0.0035068018 206 44
-0.044717249 -0.077111997 0.24727316 0.0024050546 317 68
-0.043229379 -0.07654608 0.24565583 0.0017592461 503 107
-0.041861225 -0.076166794 0.24462719 0.0015280709 635 136
-0.040563513 -0.075897828 0.24394357 0.0015519495 653 140
-0.039447393 -0.075962834 0.24432552 0.0015352981 638 136
-0.038550597 -0.076466776 0.24611321 0.0016506151 561 120
-0.037479084 -0.076644659 0.24684583 0.0017202731 557 119
-0.036306854 -0.076621361 0.24692389 0.0017228522 553 118
-0.035113312 -0.076550074 0.24684028 0.0017356197 513 110
-0.033959825 -0.076564215 0.2470255 0.0018160664 506 108
-0.032779086 -0.076515742 0.24700221 0.0016603953 559 119
-0.031661127 -0.076615632 0.24745165 0.0018370153 500 107
-0.030526767 -0.076681934 0.24778676 0.0017556854 510 109
-0.029422222 -0.076831333 0.24838486 0.0018179911 526 112
-0.028254006 -0.076819927 0.24845746 0.0018824204 501 107
-0.027106119 -0.076865196 0.24870776 0.0018716367 476 102
-0.026013 -0.077076793 0.24949107 0.0017891855 491 105
-0.02485241 -0.077098981 0.2496562 0.0019826714 475 101
-0.02375707 -0.077335745 0.25051129 0.0018188118 479 102
-0.022564832 -0.0772653 0.25036624 0.0019353481 440 94
-0.021347335 -0.077095911 0.24989538 0.0019720481 420 90
-0.020155169 -0.077003695 0.24966955 0.0020268403 449 96
-0.018995285 -0.077031061 0.24982658 0.0018791764 455 97
-0.017840292 -0.077083148 0.25005925 0.0019180246 481 103
-0.016705472 -0.077235796 0.25061378 0.0020384334 451 96
-0.015509116 -0.077105507 0.25024581 0.0018943567 454 97
-0.014367533 -0.077248484 0.25076038 0.0020250597 437 93
-0.013236031 -0.077475816 0.25154474 0.0021796362 417 89
-0.012065662 -0.077497751 0.25165814 0.001989708 434 93
-0.01087807 -0.077401876 0.25138485 0.0020201469 429 92
-0.0096438369 -0.076910861 0.24982388 0.0020079899 433 92
-0.0085324477 -0.077399231 0.25144017 0.002103647 388 83
-0.0073998049 -0.077819698 0.2528322 0.0021330828 401 86
-0.0061882734 -0.07741268 0.2515319 0.0021592411 411 88
-0.0050258571 -0.077573381 0.25207227 0.0020183693 414 88
-0.0038460523 -0.077481896 0.2517893 0.0020306171 409 87
-0.0026710227 -0.07744848 0.25169125 0.0019486434 451 96
-0.0015015868 -0.077651955 0.2523593 0.0022769356 395 84
-0.00032457727 -0.077519171 0.25193068 0.0020542319 399 85
0.00084554678 -0.077125311 0.25064984 0.0022680901 400 85
0.0020090544 -0.076935105 0.25002706 0.0019412321 434 93
0.0031932849 -0.077386759 0.25148648 0.0021246497 383 82
0.0043961997 -0.077927031 0.25322986 0.0023239972 369 79
0.005591718 -0.0781352 0.25389013 0.0021276714 381 81
0.0067447592 -0.077780776 0.25271851 0.0022029798 392 84
0.0079442468 -0.077987738 0.25336695 0.0021993842 365 78
0.0091117769 -0.077868007 0.25295004 0.0021160671 398 85
0.010244238 -0.077510372 0.25175652 0.0020379673 407 87
0.011415621 -0.077490516 0.2516562 0.0022672231 392 84
0.012579619 -0.077428907 0.25141627 0.002025272 414 88
0.013732388 -0.077314593 0.25100112 0.001853057 469 100
0.014888304 -0.077234559 0.25069311 0.0020401229 425 91
0.016070748 -0.077293791 0.25083286 0.001987247 441 94
0.017210698 -0.077154458 0.25032386 0.0017189404 523 112
0.018382309 -0.077165782 0.25029933 0.0018783726 485 104
0.019531813 -0.07708849 0.2499828 0.0017443458 513 110
0.020698443 -0.077083692 0.24989681 0.0017086505 529 113
0.02187849 -0.077126712 0.24996091 0.0019904659 455 97
0.023125643 -0.077389933 0.25073346 0.0019585504 464 99
0.024218671 -0.077136867 0.24982825 0.001812611 508 109
0.025236974 -0.076680042 0.2482588 0.0017642413 530 113
0.026381234 -0.076629318 0.24799944 0.001722437 558 119
0.027663037 -0.076965526 0.24898653 0.0016903153 536 115
0.028832385 -0.076974317 0.24890843 0.0015625068 612 131
0.029680155 -0.076157279 0.24615537 0.0012715609 841 180
0.031153822 -0.076947302 0.24859072 0.0014937305 674 144
0.032182761 -0.076621525 0.24741462 0.0014197204 727 156
0.033417009 -0.076790199 0.2478292 0.0015313016 659 141
0.034556258 -0.076736562 0.24751979 0.0014863879 667 143
0.035680745 -0.076654732 0.24711311 0.0015634059 647 138
0.036790762 -0.076547921 0.24661964 0.0016255707 571 122
0.037837576 -0.076320179 0.24573036 0.0016452504 562 120
0.038895257 -0.076127216 0.24494691 0.0016197705 578 124
0.039918527 -0.075879924 0.24398248 0.0015948256 601 129
0.040992521 -0.075740218 0.24335751 0.0016234071 571 122
0.042045757 -0.075570822 0.24263033 0.0015357418 629 135
0.043342039 -0.075835653 0.2432894 0.0016232058 595 127
0.044568483 -0.075967759 0.24351382 0.0016347694 567 121
0.045777228 -0.076063819 0.24361393 0.0016014639 581 124
0.046936262 -0.076074593 0.24343236 0.0016319709 597 128
0.048016943 -0.075960882 0.24284427 0.0015536306 615 132
0.048895545 -0.075540304 0.24126817 0.0016472094 617 132
0.050057251 -0.075566329 0.24111095 0.0015828379 649 139
0.050966933 -0.075219259 0.23975544 0.001560297 644 138
0.051867343 -0.074873962 0.23839891 0.0014844665 663 142
0.053141505 -0.075071461 0.23876193 0.0015648366 645 138
0.054374926 -0.075204313 0.23890896 0.0014851154 657 141
0.05559827 -0.075318076 0.23898496 0.001543115 667 143
0.056882773 -0.075508431 0.23929335 0.0014838027 710 152
0.057934433 -0.075388297 0.23860782 0.0013672366 762 163
0.058840942 -0.075087599 0.23734285 0.0014627151 708 151
0.060015596 -0.075133979 0.23716632 0.0014020526 760 163
0.061281793 -0.075291105 0.23732875 0.0013788125 741 159
0.062290341 -0.075131722 0.23648392 0.0013041034 846 181
0.062890835 -0.074494734 0.23412983 0.0011584664 993 213
0.064643681 -0.075221099 0.23605078 0.0011964525 986 211
0.065483302 -0.074878037 0.23460454 0.0011797461 968 207
0.066493772 -0.074738711 0.23379004 0.0011792595 963 206
0.067508914 -0.07460922 0.23299883 0.0013027416 861 184
0.0678133 -0.073711403 0.22980525 0.0011344322 1020 218
0.069689274 -0.0745233 0.23193431 0.0012061057 924 198
0.070813596 -0.074518308 0.23150922 0.0011846448 962 206
0.071556687 -0.074118614 0.22985318 0.0013111046 834 179
0.073172264 -0.074621022 0.23098792 0.0014342776 744 159
0.074668668 -0.074988455 0.23169443 0.0014851753 653 140
0.075952642 -0.075134739 0.23171015 0.0015978438 631 135
0.077032439 -0.075077705 0.23109482 0.0016209945 599 128
0.078447685 -0.075344503 0.23147267 0.0016904974 575 123
0.079546481 -0.075304091 0.23090422 0.0018316524 515 110
0.080092981 -0.074749358 0.22876261 0.0017053552 532 114
0.081463568 -0.074968487 0.22899312 0.0018677427 494 106
0.082947865 -0.075284787 0.22952092 0.0019096318 483 103
0.083558351 -0.074810185 0.22764365 0.0018955818 457 98
0.085576162 -0.075591408 0.22959334 0.0020395285 400 85
0.08723712 -0.076040931 0.23053801 0.0021909305 362 77
0.087721206 -0.07546629 0.22838967 0.0022331155 367 78
0.088858955 -0.075461552 0.22798268 0.002272709 377 80
0.090240732 -0.075661525 0.2282089 0.0021799717 362 77
0.091174521 -0.075485572 0.22731899 0.0022180674 356 76
0.092225261 -0.075409621 0.22675133 0.0023602175 326 69
0.093586855 -0.075586587 0.22696593 0.0028522161 277 59
0.094928615 -0.075743467 0.22714287 0.0029587864 269 57
0.09576083 -0.075494863 0.22613014 0.0027018294 267 57
0.096494615 -0.075175449 0.22493486 0.0027259928 274 58
0.097428791 -0.075017802 0.22425413 0.0030797538 237 50
0.098229408 -0.074762128 0.22331172 0.0028725909 245 52
0.098011807 -0.073746152 0.2201324 0.0032376056 244 52
0.099358402 -0.073916756 0.2205285 0.0031543004 231 49
0.10093974 -0.074256234 0.22146051 0.0031258767 238 51
0.10230335 -0.074429825 0.22193055 0.0032619927 210 45
0.1029795 -0.074104927 0.22094786 0.0031727469 216 46
0.10388254 -0.073948555 0.2205012 0.00345939 199 42
0.10460097 -0.073665507 0.21971002 0.0037373032 198 42
0.10471918 -0.072970182 0.2177213 0.0037265876 174 37
0.10607318 -0.073141523 0.21835029 0.0037514132 175 37
0.10725677 -0.073193029 0.2186539 0.0038931004 168 36
0.10831609 -0.073159538 0.21873499 0.0043730987 165 35
0.10925376 -0.073045395 0.21860521 0.004151036 164 35
0.11086877 -0.073381864 0.21985459 0.0041459566 154 33
0.11158875 -0.073125124 0.21935612 0.0047418997 130 27
0.11177508 -0.07252717 0.21785885 0.0049453736 128 27
0.11205261 -0.071999453 0.21659493 0.0046506785 135 28
0.11265539 -0.071688883 0.21600637 0.0050150505 120 25
0.11795359 -0.074343674 0.22439003 0.0054535475 112 24
-0.11257966 -0.061874177 0.19534692 0.0037528076 169 36
-0.11729991 -0.065018162 0.20477661 0.0042879274 177 37
-0.11719398 -0.065518111 0.20583002 0.0043652258 154 33
-0.11725262 -0.066119537 0.20718759 0.0039399746 163 34
-0.11747216 -0.066823013 0.20885831 0.0040340582 171 36
-0.1171561 -0.067231558 0.20960824 0.0041998047 176 37
-0.11723571 -0.067876436 0.21110055 0.0037092871 176 37
-0.11641505 -0.068007007 0.2110036 0.003517464 189 40
-0.11519613 -0.067905195 0.21020323 0.0033739079 201 43
-0.11401326 -0.067822948 0.20948359 0.0032393606 211 45
-0.11547512 -0.069326974 0.21367404 0.0034795068 197 42
-0.11430202 -0.06926237 0.21304169 0.0032592048 211 45
-0.11354479 -0.069450922 0.21320935 0.0031124072 225 48
-0.11292158 -0.069725804 0.21366258 0.0032982617 208 44
-0.11180576 -0.069698893 0.2132137 0.0034024878 208 44
-0.11123282 -0.070013136 0.21383207 0.0032437155 211 45
-0.11139862 -0.070803061 0.21592417 0.0033896605 211 45
-0.11150282 -0.071569055 0.21796384 0.0029598246 239 51
-0.10969795 -0.071112752 0.21630795 0.0028798105 243 52
-0.10847527 -0.071028449 0.21581478 0.0028572185 253 54
-0.10772678 -0.071256109 0.21629903 0.0029395767 241 51
-0.10710499 -0.071573116 0.21708383 0.0031054164 244 52
-0.10621085 -0.071712807 0.21736144 0.0027142914 267 57
-0.10553113 -0.072001733 0.21812294 0.0025688112 318 68
-0.10468223 -0.07218013 0.21858189 0.0025756469 285 61
-0.10370149 -0.072270475 0.21880741 0.0025704869 290 62
-0.10323436 -0.072724596 0.22016789 0.0026482311 298 63
-0.10241085 -0.072934859 0.22082403 0.0024089357 315 67
-0.10226247 -0.073635936 0.22300076 0.0024894606 301 64
-0.10132793 -0.073780261 0.22352611 0.0023470353 349 74
-0.10049672 -0.074003957 0.22432601 0.0025579028 331 71
-0.099419378 -0.074049458 0.22461911 0.002195108 369 79
-0.098577477 -0.074273415 0.22548604 0.002320732 337 72
-0.097899877 -0.074627854 0.22678164 0.0022466925 354 75
-0.096742652 -0.074620776 0.2270091 0.0021393572 377 80
-0.095472507 -0.074525364 0.22699554 0.002205296 357 76
-0.094319843 -0.074520454 0.22728331 0.0022635087 393 84
-0.093426324 -0.074722685 0.2282279 0.002219073 395 84
-0.091498151 -0.074092142 0.226649 0.0020711019 420 90
-0.090587869 -0.074280329 0.2275925 0.0021168864 407 87
-0.089763552 -0.07454472 0.22878948 0.0018163993 481 103
-0.088236719 -0.074224994 0.22820884 0.0018649767 463 99
-0.087500043 -0.074570291 0.22968636 0.0019756004 423 90
-0.086645454 -0.074822918 0.23089293 0.0019318962 435 93
-0.085671097 -0.074977547 0.23180844 0.0019391723 434 93
-0.084160164 -0.074660383 0.2312713 0.001933511 435 93
-0.082371645 -0.074084774 0.22993331 0.0018685141 467 100
-0.08169876 -0.074510485 0.23170535 0.001823352 471 101
-0.0806197 -0.074572615 0.23235121 0.0019582654 484 103
-0.079659432 -0.074748002 0.23335133 0.0018082667 476 102
-0.078518011 -0.074756064 0.23382868 0.0018741919 499 107
-0.077445649 -0.074831083 0.23451315 0.0019072584 443 95
-0.076153591 -0.074692875 0.23452513 0.0018172369 481 103
-0.074826941 -0.074516006 0.2344088 0.0018093867 494 106
-0.073155738 -0.073985152 0.23316897 0.0015309535 627 134
-0.071645729 -0.073603131 0.23238623 0.0012589787 917 196
-0.070626639 -0.073721267 0.23317395 0.0017800336 496 106
-0.070196189 -0.074467711 0.23594587 0.002278856 346 74
-0.069133356 -0.074556932 0.23663156 0.0029495305 265 56
-0.067550763 -0.074079186 0.23550695 0.0028229572 255 54
-0.065375924 -0.072924405 0.23221233 0.002542411 292 62
-0.063516729 -0.072087541 0.22991073 0.0023748705 359 77
-0.061519269 -0.071061216 0.22698623 0.0021089287 384 82
-0.060250651 -0.07085488 0.22666571 0.0019020431 447 95
-0.059287243 -0.071006477 0.22748047 0.0017994962 540 115
-0.058622517 -0.071528219 0.22947471 0.0014135885 748 160
-0.056915168 -0.070773415 0.22736306 0.0012214023 917 196
-0.055580541 -0.07046169 0.22666083 0.0010180265 1240 255
nan nan nan 0 1783 255
-0.052442443 -0.069181785 0.22310369 0.0010431689 1186 254
-0.052587871 -0.070810646 0.22862931 0.001692757 539 115
-0.051568292 -0.070906512 0.22920287 0.0019463407 457 98
-0.050913852 -0.071519464 0.23144141 0.0020655293 428 91
-0.049749952 -0.071428023 0.23139346 0.0019751112 429 92
-0.048763163 -0.071592487 0.23216596 0.0021872751 392 84
-0.047968332 -0.072052881 0.23389155 0.0024510508 343 73
-0.047471657 -0.072993517 0.23717195 0.0024313352 323 69
-0.046761263 -0.07364314 0.23950316 0.0028238182 255 54
-0.046627663 -0.07525596 0.24496512 0.003801177 189 40
-0.046515509 -0.076986402 0.25081104 0.0034375309 194 41
-0.045254096 -0.076855466 0.25058895 0.0028762722 280 60
-0.043437146 -0.075748704 0.24717383 0.0021857745 409 87
-0.041888557 -0.075061828 0.24511646 0.0016482577 553 118
-0.040648721 -0.074904963 0.24478027 0.0016178818 579 124
-0.039321374 -0.074572973 0.24386331 0.0015679116 604 129
-0.038178679 -0.074581742 0.2440528 0.0015929234 591 126
-0.037612453 -0.075752079 0.24803875 0.001832064 521 111
-0.036531165 -0.075926758 0.24876042 0.0020585649 442 94
-0.035325415 -0.075845711 0.24863778 0.001884782 450 96
-0.034229156 -0.07600227 0.24928765 0.0018081445 485 104
-0.03305041 -0.075980261 0.2493457 0.0017631499 506 108
-0.031765815 -0.075704381 0.24856395 0.0017557994 506 108
-0.030649556 -0.075823948 0.24907432 0.0018339207 477 102
-0.029479805 -0.075815409 0.2491582 0.0019003979 456 97
-0.028311605 -0.075810321 0.24924771 0.0020035699 415 89
-0.027168229 -0.075874127 0.24955828 0.0019895379 417 89
-0.026129734 -0.076249704 0.25088951 0.0019201289 440 94
-0.025092576 -0.076664671 0.25234607 0.0020494331 408 87
-0.023895059 -0.076606467 0.25224036 0.0021050228 412 88
-0.022654325 -0.076396503 0.25162965 0.0020530419 405 86
-0.021425933 -0.076207437 0.25108254 0.0021040428 411 88
-0.020214859 -0.076061673 0.250673 0.0020486836 405 86
-0.019051248 -0.076087534 0.25082439 0.0021716894 408 87
-0.017954018 -0.076399252 0.25191385 0.0021374959 395 84
-0.016784893 -0.076427273 0.25206372 0.0020529774 401 86
-0.015596188 -0.076363653 0.25190699 0.002109031 392 84
-0.014421605 -0.07636445 0.25195849 0.0020683547 399 85
-0.013258944 -0.076434121 0.25223309 0.0020555994 401 86
-0.01209567 -0.076513454 0.25253567 0.0020901656 392 84
-0.010844672 -0.075995177 0.25086156 0.0021074493 388 83
-0.0096501959 -0.075795591 0.2502352 0.0020797271 422 90
-0.0085111875 -0.076036677 0.2510598 0.0020455739 415 89
-0.0073578325 -0.076205984 0.25164384 0.0020497642 407 87
-0.0062319431 -0.076777861 0.2535536 0.0021947338 370 79
-0.0050473609 -0.076724991 0.25339666 0.0022652943 379 81
-0.0038647996 -0.076679975 0.25326183 0.0021918528 360 77
-0.0026838332 -0.076640919 0.25314301 0.0022233345 357 76
-0.0015082394 -0.076814316 0.25372225 0.0022417733 367 78
-0.00032659157 -0.076818533 0.25373903 0.0022379756 359 77
0.00084923219 -0.07628791 0.25198549 0.0021494105 374 80
0.0020186419 -0.076131091 0.25146306 0.0022040748 381 81
0.0031954295 -0.076265514 0.251899 0.002222958 377 80
0.0043840874 -0.076534957 0.25277713 0.0021527973 375 80
0.0055624451 -0.076548576 0.2528066 0.0021892875 363 77
0.0067805322 -0.07700865 0.25430667 0.0022635302 347 74
0.0079817446 -0.07716874 0.25481218 0.0022084974 364 78
0.0091575086 -0.077073172 0.2544696 0.0022133652 355 76
0.010324114 -0.076931268 0.25397032 0.0022407649 362 77
0.011463566 -0.076637037 0.25296432 0.0021528129 378 81
0.012637977 -0.076609589 0.25283521 0.0021776855 362 77
0.013767597 -0.076338477 0.25189799 0.0020398304 403 86
0.014956474 -0.076412708 0.25209638 0.0022402625 394 84
0.016153667 -0.076515518 0.25238469 0.0020673901 426 91
0.017344223 -0.076575063 0.25252593 0.0021495605 405 86
0.018494777 -0.076461673 0.25209248 0.0019532065 433 92
0.019684462 -0.076513924 0.25220078 0.0019311853 446 95
0.020816328 -0.076348215 0.25158617 0.0019887476 414 88
0.021952529 -0.076215275 0.25107512 0.0019916678 429 92
0.023198538 -0.076457702 0.25179574 0.0019213469 491 105
0.024408519 -0.076563723 0.25206187 0.0018572918 469 100
0.025428897 -0.076092631 0.25042331 0.0019592238 437 93
0.026673039 -0.07630311 0.25102299 0.0019240843 480 103
0.027773043 -0.076100901 0.25025964 0.0017922835 491 105
0.029054837 -0.076393023 0.25111628 0.0017530813 515 110
0.030076033 -0.076003887 0.24972813 0.0017255663 530 113
0.031132193 -0.075728916 0.24871027 0.0017166587 525 112
0.032444045 -0.076073326 0.24972045 0.0016752781 548 117
0.033482283 -0.075774521 0.24861322 0.0016861219 554 118
0.034631979 -0.075739577 0.24836594 0.0018964621 496 106
0.035356153 -0.074806608 0.24516918 0.0016454041 598 128
0.036914326 -0.075641386 0.24775964 0.0017974079 498 106
0.038112238 -0.075709522 0.24783041 0.0020312744 437 93
0.039135035 -0.075436056 0.24677651 0.001832563 484 103
0.040139228 -0.075143486 0.24565418 0.0017503722 509 109
0.041118082 -0.074821211 0.24442886 0.0018494672 510 109
0.042261824 -0.074808352 0.24420768 0.0018357093 489 104
0.043550987 -0.07504677 0.24479857 0.0018745424 459 98
0.044967528 -0.075486705 0.24603723 0.0018445768 472 101
0.046074957 -0.075398631 0.24554592 0.0019249314 441 94
0.047157265 -0.075274803 0.24493052 0.0018738847 475 101
0.048329372 -0.075296804 0.24478148 0.0018741165 499 107
0.049388096 -0.075145267 0.24406001 0.0017228473 514 110
0.050263323 -0.074727848 0.24246798 0.0016826575 549 117
0.051474698 -0.074817687 0.24251398 0.0015942309 584 125
0.052474514 -0.074602813 0.24156363 0.0016626433 545 116
0.053724144 -0.074744709 0.24175945 0.0017084022 532 114
0.054989185 -0.074901633 0.2419934 0.0017704408 540 115
0.055845197 -0.074506417 0.24043486 0.0016848196 540 115
0.057027534 -0.074553713 0.24029598 0.0016466165 562 120
0.057912722 -0.074218325 0.23891507 0.0015231045 641 137
0.058819275 -0.073922761 0.23765521 0.0015659259 670 143
0.060212962 -0.074239023 0.23835231 0.0016578726 600 128
0.061957441 -0.074967943 0.24035987 0.0015760062 596 127
0.062746651 -0.074535497 0.2386326 0.0015926991 613 131
0.063655101 -0.074257657 0.23739374 0.0014695801 675 144
0.064385332 -0.073785402 0.23552713 0.0014149528 736 157
0.065266021 -0.073498927 0.23424761 0.0013095562 802 172
0.066118874 -0.073191404 0.23289461 0.001275964 884 189
0.067567669 -0.073542811 0.23362891 0.0013102323 832 178
0.068056166 -0.072854653 0.2310537 0.0013072104 835 179
0.06990499 -0.07362143 0.23308375 0.001304316 812 174
0.071138598 -0.073726155 0.23300488 0.0012681104 843 180
0.072064199 -0.073513418 0.23191565 0.0013187913 861 184
0.073509663 -0.073829353 0.23248677 0.0014046964 713 153
0.074799813 -0.073982082 0.23253489 0.0014055327 712 152
0.075628676 -0.073680796 0.23115152 0.001491616 700 150
0.07684461 -0.073759966 0.23095846 0.0015262779 684 146
0.078276306 -0.074040912 0.23139168 0.0015602364 604 129
0.080047973 -0.07463076 0.23278286 0.0016544147 561 120
0.080416366 -0.073914126 0.23009874 0.0016134648 573 122
0.081857629 -0.074189842 0.23050719 0.0017945942 489 104
0.083209336 -0.074377924 0.23064286 0.0017984919 479 102
0.084540918 -0.074543141 0.23070943 0.0019975635 466 100
0.083848089 -0.072942853 0.22532608 0.0018770399 450 96
0.087755322 -0.075333752 0.23227508 0.0020801057 393 84
0.087694451 -0.074300282 0.22866787 0.0021654305 404 86
0.088684127 -0.074172057 0.22786525 0.0021438359 402 86
0.089687444 -0.074058361 0.2271228 0.0021313638 373 80
0.090897925 -0.074116416 0.22692381 0.0021749351 373 80
0.092139706 -0.074198253 0.22681561 0.0023419175 330 70
0.093643315 -0.074486345 0.22735703 0.0025893613 318 68
0.094869301 -0.07454931 0.22723274 0.0026270361 304 65
0.095627017 -0.074247196 0.22602168 0.0026554414 304 65
0.096575111 -0.074098289 0.22530551 0.0028520136 274 58
0.097635373 -0.07403791 0.22488776 0.0026466544 286 61
0.097685061 -0.073221423 0.22220577 0.0029168734 272 58
0.098291695 -0.072836272 0.22086686 0.0028922693 246 52
0.099732995 -0.073071338 0.22144099 0.002866216 247 53
0.10167268 -0.073662244 0.22312501 0.0030690739 226 48
0.102585 -0.073503993 0.22257285 0.0031928555 215 46
0.10254914 -0.072677225 0.22003107 0.0032285273 210 45
0.1034384 -0.072516844 0.21954119 0.0034376862 209 44
0.10542744 -0.073122673 0.22140512 0.0037698736 196 42
0.1056051 -0.072472647 0.21950017 0.0037960426 196 42
0.1063085 -0.072193213 0.21875015 0.0036522453 178 38
0.10745883 -0.072219923 0.21896031 0.00427701 170 36
0.10819585 -0.071971163 0.21836707 0.003888695 165 35
0.10922803 -0.071921781 0.21840958 0.0042244769 149 31
0.11070275 -0.072161883 0.21936253 0.0040063695 157 33
0.1113332 -0.071852334 0.21867433 0.0047748364 145 31
0.11199792 -0.071570754 0.2180981 0.0046972395 146 31
0.11247049 -0.071173079 0.21719337 0.0047049676 129 27
0.11233708 -0.070403293 0.21517469 0.0051475046 126 27
0.11135317 -0.069120273 0.21160313 0.0059483042 112 24
-0.11842868 -0.064087525 0.20522822 0.0041922941 166 35
-0.11767844 -0.064224541 0.20515281 0.0040269457 175 37
-0.11785301 -0.064872988 0.20669277 0.0038033386 178 38
-0.11767409 -0.065336399 0.20763414 0.0038639188 168 36
-0.11754973 -0.065838493 0.20869812 0.0037258964 173 37
-0.11726822 -0.066260651 0.20951365 0.0036936065 179 38
-0.11722592 -0.066826686 0.21079168 0.0038912352 189 40
-0.11626732 -0.066875853 0.21045193 0.0036738163 177 37
-0.11555492 -0.067068823 0.2105816 0.0037330834 191 40
-0.11500522 -0.067360602 0.2110379 0.0034649172 188 40
-0.11384801 -0.067298658 0.21040525 0.0033755426 199 42
-0.11369099 -0.067832313 0.21165349 0.0034953838 192 41
-0.11397502 -0.06864164 0.21377668 0.0032983739 208 44
-0.11346401 -0.068982966 0.21445964 0.0033551455 200 42
-0.11235664 -0.068964809 0.21404834 0.0037211371 193 41
-0.11135568 -0.06901224 0.21386641 0.0031076705 221 47
-0.11155084 -0.069809116 0.21603025 0.003134788 220 47
-0.11117864 -0.070263185 0.21715611 0.0030881437 223 47
-0.11035499 -0.070438161 0.21744621 0.0031962711 228 48
-0.10907314 -0.070321262 0.21686529 0.0029897988 257 55
-0.1081873 -0.070459872 0.2171033 0.0030726714 248 53
-0.10764352 -0.070826404 0.21807423 0.0030081554 260 55
-0.10654977 -0.070834935 0.21797471 0.0026429188 278 59
-0.10590342 -0.071144193 0.21883337 0.0025694182 289 62
-0.10501593 -0.07129629 0.21924198 0.0024897223 300 64
-0.10402713 -0.071382158 0.21948095 0.0026904575 283 60
-0.10287418 -0.071356013 0.21940988 0.0026585327 291 62
-0.10260006 -0.071945541 0.22126661 0.0025759127 299 64
-0.10173473 -0.072128981 0.22190937 0.0023657116 319 68
-0.10125504 -0.072593004 0.2234503 0.0022375588 348 74
-0.10041638 -0.072807267 0.22425722 0.0023665745 337 72
-0.099358335 -0.072865561 0.22461697 0.0022877359 338 72
-0.098521218 -0.073089086 0.22551851 0.002158677 371 79
-0.098122314 -0.073646784 0.22748393 0.0022589993 366 78
-0.097195521 -0.073816776 0.22828335 0.0021681266 375 80
-0.095430419 -0.073346555 0.22712883 0.0021931375 364 78
-0.094540834 -0.073545985 0.22807203 0.0021541838 372 79
-0.093530238 -0.073655024 0.22875947 0.0021139828 380 81
-0.092216253 -0.073524892 0.22872497 0.0020941964 422 90
-0.090852268 -0.073351108 0.22857183 0.0019171372 442 94
-0.089474909 -0.073161952 0.22838511 0.0018804669 470 100
-0.088473 -0.073278859 0.22916751 0.0018257992 473 101
-0.087515526 -0.073436134 0.23008956 0.0019972555 440 94
-0.086344458 -0.073415957 0.23046611 0.0018591888 470 100
-0.085114449 -0.073344447 0.23068847 0.0019215685 475 101
-0.083865866 -0.073254772 0.23085819 0.0019883174 445 95
-0.082971983 -0.073476717 0.23201443 0.0018840182 451 96
-0.081518836 -0.073202685 0.23160608 0.0019251631 442 94
-0.080416776 -0.073240623 0.23218353 0.0019094947 476 102
-0.07930024 -0.07326626 0.23272114 0.001801873 487 104
-0.078162238 -0.073272549 0.23319489 0.0018503515 489 104
-0.077208512 -0.07345432 0.23422447 0.0017711569 511 109
-0.076248914 -0.073635906 0.2352508 0.0017396436 513 110
-0.074833035 -0.073375672 0.23485929 0.0017013935 533 114
-0.073608264 -0.07329762 0.23504226 0.0016125607 587 125
-0.07182759 -0.072654806 0.23340259 0.0012141904 969 207
-0.070930965 -0.072899953 0.23460531 0.001566429 607 130
-0.07034833 -0.073481061 0.23688537 0.0023581865 353 75
-0.069472484 -0.073770106 0.23821977 0.002870684 262 56
-0.067793339 -0.073201515 0.23677388 0.002862378 258 55
-0.065806486 -0.072275467 0.23415439 0.0025875922 286 61
-0.063852802 -0.071354151 0.2315311 0.0022975791 339 72
-0.061932761 -0.070438333 0.22890687 0.0022328075 390 83
-0.060414389 -0.069954477 0.22766994 0.0019993586 443 95
-0.059486106 -0.070148669 0.22862872 0.0014522591 680 145
-0.058726076 -0.070552275 0.23026305 0.0011371092 1040 223
nan nan nan 0 1653 255
-0.055797905 -0.069649071 0.22791626 0.0008870638 1600 255
-0.054029867 -0.068783559 0.22536676 0.00090307533 1525 255
-0.05320413 -0.069106892 0.22670086 0.0012186598 911 195
-0.052514378 -0.069623888 0.22866443 0.0017085593 541 116
-0.051814955 -0.070149675 0.23065165 0.0020590306 398 85
-0.050763663 -0.070211522 0.2311065 0.0018307165 496 106
-0.049714949 -0.070279725 0.23157388 0.0018361101 475 101
-0.048738033 -0.070454814 0.23238547 0.0021544716 407 87
-0.048107259 -0.07114993 0.23490655 0.0023639468 351 75
-0.047423057 -0.071797043 0.23726481 0.0024452095 306 65
-0.046549205 -0.072181433 0.23874961 0.0027234864 271 58
-0.046156701 -0.073349826 0.24282387 0.003512834 194 41
-0.046731804 -0.076154552 0.25231794 0.0035905433 181 38
-0.045395862 -0.075910218 0.25170851 0.0025998759 288 61
-0.043290306 -0.074331298 0.24666105 0.0021151744 381 81
-0.042436425 -0.07487376 0.24864277 0.0018655651 462 99
-0.04119743 -0.074748233 0.24839963 0.0020165434 439 94
-0.039664842 -0.074067146 0.2463012 0.0020608043 417 89
-0.038622361 -0.074287817 0.2471932 0.0021478615 417 89
-0.037784941 -0.074928798 0.24947871 0.002183438 412 88
-0.036631066 -0.074963175 0.24973899 0.0022682585 380 81
-0.035506845 -0.075062484 0.2502093 0.0019910655 427 91
-0.034301098 -0.074990369 0.25010172 0.0019822314 425 91
-0.033216055 -0.075186364 0.25088236 0.0020392055 408 87
-0.031964563 -0.075006157 0.25040165 0.0019504552 438 94
-0.030716902 -0.074821562 0.2498997 0.0020583244 412 88
-0.029545058 -0.074814335 0.24998419 0.0020340509 414 88
-0.028407713 -0.074897483 0.25036514 0.0021310342 401 86
-0.027431678 -0.075431347 0.25224814 0.0021609429 375 80
-0.026357152 -0.075730138 0.25334084 0.0021101749 390 83
-0.025190717 -0.075780533 0.2535978 0.0022764816 383 82
-0.023973899 -0.075676866 0.25333413 0.0023772726 354 75
-0.022735829 -0.075491883 0.25279301 0.0023563572 365 78
-0.021477766 -0.075216636 0.25194442 0.0023106635 381 81
-0.020297194 -0.075196616 0.25194579 0.002228643 357 76
-0.019183492 -0.075437076 0.25281566 0.002264003 346 74
-0.018078404 -0.075745113 0.25390804 0.0024821747 357 76
-0.016916933 -0.075843528 0.25429371 0.0023168758 341 73
-0.015628979 -0.075347006 0.25268015 0.0022051919 370 79
-0.014464227 -0.075411923 0.25294504 0.0020879866 392 84
-0.013295169 -0.075463906 0.25316256 0.0021627788 369 79
-0.012101841 -0.075374849 0.25290298 0.0021751353 366 78
-0.010906646 -0.07525371 0.25253186 0.0022137202 353 75
-0.0097182682 -0.075156018 0.25223541 0.0022877795 374 80
-0.0085938927 -0.075594462 0.25373477 0.0021980132 377 80
-0.0074213739 -0.075681664 0.25405169 0.0021926209 388 83
-0.0062530041 -0.07585223 0.25464481 0.0022668946 346 74
-0.0050797276 -0.076029129 0.25525573 0.0023858552 331 71
-0.0038917887 -0.076027609 0.25526404 0.0023068239 354 75
-0.0027096386 -0.076187491 0.25581071 0.0025199724 334 71
-0.0015186878 -0.076156601 0.25571322 0.0022451193 353 75
-0.00032845131 -0.076067492 0.25541684 0.0022754711 348 74
0.00085821556 -0.075908914 0.25488356 0.0021897953 371 79
0.0020321442 -0.075461313 0.25337631 0.0024047922 359 77
0.0032068864 -0.07536152 0.25303343 0.0022350301 367 78
0.0043828315 -0.075336002 0.25293642 0.0022062836 361 77
0.0055913259 -0.075762331 0.25435281 0.0023516424 361 77
0.006772825 -0.075737804 0.25425196 0.0022121726 361 77
0.0079652658 -0.075824745 0.25452155 0.0020967908 384 82
0.0091856215 -0.076120496 0.25548828 0.002438752 349 74
0.010419191 -0.076445378 0.25654891 0.0023926438 344 73
0.011682494 -0.076899163 0.25803787 0.0022490525 350 75
0.012704181 -0.07582622 0.25440031 0.0022726776 365 78
0.013863214 -0.075686142 0.25388923 0.002312446 359 77
0.015029611 -0.075605139 0.25357243 0.002232803 391 83
0.016233871 -0.075712509 0.25388333 0.0021672859 366 78
0.017397095 -0.075626917 0.25354305 0.0021663944 367 78
0.018578697 -0.075627021 0.25348592 0.0022061255 387 83
0.019754009 -0.075603046 0.25334364 0.0022620517 383 82
0.020960109 -0.075692959 0.25357854 0.0023988045 355 76
0.02213875 -0.075679392 0.25346214 0.0021508809 382 81
0.023281915 -0.075552084 0.25296021 0.0021129542 380 81
0.024492789 -0.075646177 0.25319484 0.0020771751 395 84
0.025706079 -0.075738735 0.25341904 0.0020840873 409 87
0.026840441 -0.075600825 0.25286713 0.0020827518 421 90
0.028073855 -0.075741783 0.25324273 0.0021416713 409 87
0.029224178 -0.07565622 0.25285554 0.0019381123 438 94
0.030301183 -0.075394899 0.25187579 0.001913933 438 94
0.031253804 -0.074855208 0.24996166 0.0019555977 433 92
0.032316279 -0.074608073 0.24901971 0.0019263135 440 94
0.033756707 -0.075220354 0.25093976 0.0020345019 420 90
0.034645416 -0.074603379 0.24875279 0.0018511575 471 101
0.035825294 -0.074633166 0.24871702 0.0018623843 466 100
0.037210457 -0.075075246 0.25004786 0.0019915847 459 98
0.038412377 -0.075131893 0.25008732 0.0020118977 413 88
0.039600316 -0.075158656 0.25002024 0.0019523371 431 92
0.040538803 -0.074724048 0.24841215 0.0020085592 412 88
0.04160814 -0.074548237 0.24765848 0.0019201552 440 94
0.042577941 -0.074208505 0.24635398 0.0020828841 432 92
0.043920185 -0.07451871 0.24719961 0.0019504704 433 92
0.045252372 -0.074796267 0.24792758 0.0020413613 408 87
0.04637466 -0.074721642 0.24747963 0.00208892 393 84
0.047235824 -0.074240282 0.24567783 0.0019074056 449 96
0.048379194 -0.074214913 0.24537802 0.0020815381 427 91
0.049529821 -0.074201591 0.24510962 0.0019550999 441 94
0.050646354 -0.074138977 0.24466982 0.0019071493 447 95
0.051629934 -0.07388889 0.24360338 0.0017513001 509 109
0.052797738 -0.073907621 0.24341483 0.00183062 471 101
0.054098755 -0.074108042 0.24381462 0.001983281 458 98
0.055407248 -0.074310079 0.2442088 0.0018232645 478 102
0.056509346 -0.074232712 0.24367467 0.0019781375 424 91
0.057404883 -0.073892549 0.24226975 0.0017215913 521 111
0.058643125 -0.073998243 0.24231766 0.0019925665 461 98
0.05921445 -0.073274583 0.23964229 0.0016586494 550 118
0.060939066 -0.073978432 0.24162555 0.0017565357 537 115
0.062089432 -0.073971935 0.24127559 0.0016960906 533 114
0.063079238 -0.073777877 0.24030457 0.0016678004 552 118
0.0635387 -0.072981633 0.23736663 0.0014765922 663 142
0.064668536 -0.072969884 0.23697403 0.0016112941 608 130
0.065620616 -0.072761439 0.2359338 0.0016282587 598 128
0.066810615 -0.072819419 0.23574845 0.001433613 697 149
0.067482807 -0.072320528 0.23375298 0.0014336067 702 150
0.069064297 -0.072796509 0.23489918 0.0014713261 662 142
0.06985423 -0.072436236 0.23333739 0.0014160678 714 153
0.07120017 -0.072654821 0.23363236 0.0014470679 688 147
0.07247375 -0.072793879 0.23366138 0.0014495731 683 146
0.073637486 -0.072820015 0.2333193 0.0013961621 727 156
0.074806623 -0.072850592 0.23298408 0.0013864604 736 157
0.075668268 -0.072585307 0.23169784 0.0014921197 666 142
0.07647147 -0.072272621 0.23025845 0.0014442011 692 148
0.077480339 -0.072160587 0.22945651 0.0014672234 665 142
0.078888476 -0.072418287 0.22982612 0.0015078929 639 137
0.080413856 -0.072774798 0.23050356 0.001641236 567 121
0.081809916 -0.073005967 0.23077968 0.0017197818 533 114
0.083317794 -0.07332918 0.23134437 0.0017966905 487 104
0.084538393 -0.073394224 0.23109463 0.0018601611 501 107
0.085996777 -0.073661208 0.23148324 0.0018602918 462 99
0.086807914 -0.073374063 0.23013698 0.0020964432 393 84
0.087711766 -0.073171735 0.2290681 0.0019172224 439 94
0.088456132 -0.072843291 0.22761814 0.0020252101 401 86
0.089302108 -0.072605789 0.22646832 0.0021741786 401 86
0.090383843 -0.072563529 0.225944 0.0019259293 436 93
0.091921791 -0.072884046 0.22656506 0.0021329634 377 80
0.093755417 -0.073428281 0.22789681 0.0023824063 326 69
0.094820671 -0.073364861 0.22736208 0.0023504156 323 69
0.095688023 -0.073151655 0.22638839 0.0025217098 294 63
0.096858367 -0.073172383 0.22616546 0.0027384406 294 63
0.097691022 -0.072940506 0.22519033 0.0025383376 291 62
0.097962216 -0.072299585 0.22298466 0.0026483603 280 60
0.098419689 -0.07180918 0.22127722 0.0026768728 268 57
0.099032886 -0.071442194 0.21998388 0.0027394125 264 56
0.1016245 -0.072494693 0.22309288 0.0028099443 251 53
0.10211024 -0.072038308 0.22159109 0.0029538383 238 51
0.10200592 -0.071180135 0.21888888 0.0031863831 240 51
0.10285048 -0.070995457 0.21829286 0.0031360295 217 46
0.10473996 -0.071528308 0.21993732 0.0034507613 209 44
0.10699794 -0.072298907 0.22234768 0.0036387115 179 38
0.10695087 -0.071512148 0.22000279 0.003596544 185 39
0.10715244 -0.070906185 0.21824618 0.0035860357 184 39
0.1079677 -0.070714571 0.21779665 0.0038465855 171 36
0.10892995 -0.070622139 0.21768428 0.0041080508 156 33
0.10995712 -0.070573218 0.21773729 0.004067244 157 33
0.11078259 -0.070397101 0.21742785 0.0040525063 156 33
0.11180981 -0.070351392 0.21755019 0.0048411135 135 28
0.11239552 -0.070031479 0.21685205 0.0046816012 132 28
0.11223181 -0.069255285 0.21476407 0.0050766659 121 25
0.11066303 -0.067635164 0.21007405 0.0057449583 112 24
-0.11607055 -0.061830085 0.20087355 0.0038532054 183 39
-0.11874155 -0.063792266 0.20671867 0.0038561516 165 35
-0.11868923 -0.064312547 0.20786583 0.0038116386 171 36
-0.1178198 -0.064395241 0.20759828 0.0035568036 184 39
-0.11765991 -0.064870588 0.20860244 0.0038205003 171 36
-0.117329 -0.065259218 0.20933491 0.0035546515 183 39
-0.11725777 -0.065800481 0.2105663 0.0034221404 201 43
-0.11645177 -0.06593544 0.21051054 0.0034234999 201 43
-0.11558382 -0.066037469 0.21036735 0.0037343618 177 37
-0.11483236 -0.066208512 0.21046269 0.0035244322 194 41
-0.11389513 -0.066274621 0.21024436 0.00331693 205 44
-0.11333009 -0.066560559 0.21074371 0.0036504541 200 42
-0.11361447 -0.067355447 0.21287157 0.0034379573 211 45
-0.11393514 -0.068187162 0.21513149 0.0036417583 205 44
-0.11292136 -0.068228528 0.21491912 0.0035603056 214 45
-0.1118966 -0.068264 0.21471475 0.0031353775 222 47
-0.11128215 -0.068552919 0.21533418 0.0030215138 234 50
-0.11113569 -0.069138706 0.21691157 0.0033248879 221 47
-0.110691 -0.069548778 0.21796426 0.0028624935 246 52
-0.1098531 -0.069717571 0.21829018 0.0032492976 240 51
-0.10863487 -0.069645971 0.21789518 0.0029945858 242 51
-0.1079769 -0.069935754 0.21866322 0.0029827489 256 54
-0.10701837 -0.070034891 0.21886805 0.0028076887 270 57
-0.10630103 -0.070295595 0.2196115 0.00296644 263 56
-0.10528445 -0.070361845 0.21978183 0.0027681477 287 61
-0.10408271 -0.070304446 0.21960087 0.002586846 282 60
-0.10357077 -0.070716776 0.22092223 0.0023683107 323 69
-0.10285098 -0.070994698 0.22185904 0.0025055325 316 67
-0.10191388 -0.071127087 0.22237633 0.0023844484 363 77
-0.10086615 -0.071184382 0.22269328 0.0022758376 342 73
-0.10030378 -0.071589388 0.22413246 0.0021634647 371 79
-0.099428125 -0.071777508 0.22492658 0.0022043693 359 77
-0.098739758 -0.072106771 0.22619583 0.00213144 389 83
-0.09806712 -0.072455361 0.22755794 0.0021321157 387 83
-0.097040288 -0.072547428 0.2281443 0.0021308241 375 80
-0.095352978 -0.072142012 0.22719094 0.0020509649 407 87
-0.094186068 -0.072125256 0.22748379 0.0020766866 402 86
-0.093460724 -0.072450377 0.22887836 0.0019766116 423 90
-0.092363745 -0.072491921 0.22939867 0.0019723072 448 96
-0.091088295 -0.07239268 0.2294904 0.001992401 464 99
-0.089643411 -0.072154514 0.22915483 0.0018381312 476 102
-0.088218667 -0.071926609 0.22886166 0.0019733766 446 95
-0.087463938 -0.072246172 0.23032138 0.0018846231 456 97
-0.086546309 -0.072437868 0.23138481 0.0018882315 447 95
-0.084808461 -0.071938977 0.23024648 0.0019554633 482 103
-0.084039696 -0.072259732 0.23173445 0.0020090933 445 95
-0.083055802 -0.072401822 0.23265469 0.0018499672 467 100
-0.081553802 -0.072089911 0.23211555 0.001779334 492 105
-0.080429837 -0.072108045 0.23263629 0.001922351 470 100
-0.079031095 -0.071876787 0.23234874 0.001838665 515 110
-0.078022413 -0.071998723 0.23319852 0.0018832702 493 105
-0.077281453 -0.072374985 0.23487043 0.0017832782 497 106
-0.076149479 -0.072390907 0.23536962 0.0017595297 502 107
-0.075131752 -0.072517589 0.23622322 0.0017490874 507 108
-0.07394062 -0.072478227 0.23652899 0.0016758449 550 118
-0.072347641 -0.072037496 0.2355141 0.0013279157 792 170
-0.071117885 -0.071950085 0.23564269 0.0014866731 653 140
-0.070621304 -0.072613686 0.23822509 0.002329112 334 71
-0.069620267 -0.072772011 0.23914506 0.0027574536 270 57
-0.06790594 -0.072177529 0.237579 0.0029822781 236 50
-0.065989487 -0.0713441 0.235209 0.0029675879 270 57
-0.064081013 -0.070490353 0.23275335 0.0023504719 332 71
-0.062250834 -0.069693923 0.23046874 0.0022598398 376 80
-0.060738787 -0.069231294 0.22927192 0.0019703524 426 91
-0.059599802 -0.069184668 0.22944045 0.0016167836 582 124
-0.058595322 -0.069295354 0.2301212 0.0010611115 1155 247
nan nan nan 0 2348 255
nan nan nan 0 2058 255
-0.054550212 -0.068360992 0.22788875 0.0012233602 914 196
-0.05327687 -0.068120189 0.22735628 0.0015921862 640 137
-0.052731879 -0.06881997 0.22995564 0.0017198583 526 112
-0.051803712 -0.069038697 0.23094183 0.0018849386 453 97
-0.050739367 -0.06908147 0.23133138 0.001787166 505 108
-0.049639873 -0.069077231 0.2315547 0.0017574234 510 109
-0.048797227 -0.069438279 0.23299496 0.0019066203 462 99
-0.048050366 -0.069955468 0.23495349 0.0021085909 397 85
-0.047242031 -0.07040552 0.23668097 0.002388637 325 69
-0.046827562 -0.071478575 0.24049906 0.002630726 275 59
-0.046251517 -0.072352156 0.24364339 0.0034291844 216 46
-0.046583068 -0.074726142 0.25184101 0.0036875545 182 39
-0.04496279 -0.074011356 0.24962528 0.0027217402 300 64
-0.043505661 -0.073533967 0.24819927 0.0021493447 373 80
-0.042467926 -0.073758662 0.2491347 0.0021442091 379 81
-0.041269749 -0.073709555 0.24913819 0.0021354442 383 82
-0.040046915 -0.073612243 0.24897119 0.0023147096 376 80
-0.038858302 -0.073573887 0.24899618 0.0023399696 373 80
-0.037723988 -0.073639147 0.24936503 0.0021801677 400 85
-0.036629047 -0.07378789 0.25001028 0.0019306624 442 94
-0.035300892 -0.073461145 0.24903771 0.00219443 378 81
-0.034319617 -0.073858589 0.25051394 0.0021430582 379 81
-0.033023074 -0.073581673 0.249697 0.0020104209 412 88
-0.031991549 -0.073896609 0.25088257 0.0022631134 368 78
-0.030923001 -0.074146748 0.25184321 0.0021377585 388 83
-0.029621216 -0.073835298 0.25089064 0.0020883733 394 84
-0.028526651 -0.074035987 0.25167274 0.0022843741 371 79
-0.027531357 -0.074522644 0.25342247 0.0023767955 356 76
-0.026415683 -0.0747125 0.25415865 0.0023092227 360 77
-0.025199315 -0.074622028 0.25393617 0.0022459559 357 76
-0.023929439 -0.074356362 0.25311226 0.0022531939 352 75
-0.022654692 -0.074047215 0.25213495 0.002098613 391 83
-0.021482585 -0.074058086 0.25224242 0.0023547986 352 75
-0.020372244 -0.074295461 0.25311711 0.002401476 348 74
-0.019272314 -0.074602298 0.25422454 0.0024669028 338 72
-0.018158874 -0.074893579 0.25527519 0.0023228424 348 74
-0.016991442 -0.074987404 0.25564885 0.0022229042 357 76
-0.015764425 -0.074812591 0.25510257 0.0022161163 359 77
-0.01453157 -0.074579336 0.25435275 0.0022818847 342 73
-0.01331692 -0.074406408 0.2538045 0.0023498402 333 71
-0.012148119 -0.074480951 0.25409654 0.0023308585 339 72
-0.010991411 -0.074653693 0.25472003 0.0024044442 322 69
-0.0098622823 -0.075078137 0.25619882 0.0025170783 316 67
-0.0087014176 -0.075344436 0.25713465 0.0023625717 337 72
-0.0074768071 -0.075055681 0.2561726 0.0023861886 337 72
-0.0062926505 -0.075140551 0.25648212 0.0023932313 324 69
-0.0051208292 -0.075446844 0.25754404 0.002323874 335 71
-0.003938897 -0.075745672 0.25857717 0.0022549971 357 76
-0.0027196282 -0.075273663 0.25697529 0.0023286275 333 71
-0.0015265233 -0.075353518 0.257254 0.0026107975 308 66
-0.00033099981 -0.075460047 0.2576203 0.0024383136 313 67
0.00086364348 -0.075195529 0.25671652 0.0025945818 329 70
0.0020489213 -0.074895598 0.2556884 0.0023059954 341 73
0.0032256481 -0.074618101 0.25473353 0.0024183297 345 74
0.004440113 -0.075128198 0.25646392 0.002256206 350 75
0.0056492966 -0.075351872 0.25721291 0.0023337735 341 73
0.0068007973 -0.074862428 0.25552434 0.0021689697 370 79
0.0079590585 -0.074581914 0.2545456 0.0022171715 357 76
0.0091927545 -0.074989393 0.25591135 0.0024683957 349 74
0.01046291 -0.075566784 0.257853 0.0023366918 329 70
0.011653423 -0.075509354 0.25762457 0.0023974972 329 70
0.01280424 -0.075229414 0.2566334 0.0022852924 346 74
0.013999359 -0.075235315 0.25661361 0.0023211017 337 72
0.015179512 -0.075166181 0.25633413 0.0023299314 337 72
0.016266016 -0.074677192 0.25461921 0.0023761315 323 69
0.017434519 -0.07460548 0.25432333 0.0023326881 333 71
0.018634666 -0.074669711 0.25448677 0.0023659894 357 76
0.019889591 -0.074932642 0.2553229 0.0021245817 382 81
0.02106929 -0.074898474 0.25514227 0.0021596511 375 80
0.02231116 -0.075077161 0.25568202 0.0024394223 349 74
0.02361694 -0.075441889 0.25685027 0.0022811273 342 73
0.024549199 -0.074635811 0.25402808 0.0021162392 388 83
0.025755387 -0.074698418 0.25415853 0.0021262241 379 81
0.027073026 -0.07506454 0.25531617 0.0023227942 358 76
0.028190091 -0.074867107 0.25455165 0.0022163226 396 85
0.02939075 -0.074898683 0.25456068 0.0021369141 380 81
0.030484457 -0.074665844 0.25366592 0.0021496688 372 79
0.031424485 -0.074088097 0.25159493 0.0021648065 386 82
0.032420803 -0.073679969 0.25009567 0.0022600959 381 81
0.033584271 -0.073666893 0.24993217 0.0021976249 388 83
0.03485984 -0.07389231 0.25057143 0.0020692626 397 85
0.036192331 -0.074219801 0.2515496 0.0021096158 396 85
